# .PCD v0.7 - Point Cloud Data file format
VERSION 0.7
FIELDS x y z
SIZE 4 4 4
TYPE F F F
COUNT 1 1 1
WIDTH 1503
HEIGHT 1
VIEWPOINT 0 0 0 1 0 0 0
POINTS 1503
DATA ascii
0.31281811 2.3544292 0.36501482
1.452881 4.169395 0.071400516
0.6968919 4.1094847 0.33972216
0.25712863 3.5439184 0.031886451
0.20728181 2.3401825 0.0086761639
-0.1233252 2.7733302 0.21843615
0.47324911 3.617981 0.024242824
1.8032544 3.9924324 0.12791473
-0.37762994 2.7677457 0.25352058
1.0875143 3.9017265 0.021807322
0.93323123 3.9698594 0.036519054
0.46393177 3.2937715 0.28984493
1.0062358 3.357321 0.28927192
0.026060026 2.977494 0.24422078
0.070098735 3.204021 0.29120827
-0.0014256056 3.349165 0.10822385
1.2838889 3.9173427 0.012947647
1.4612349 3.945704 0.079832226
-0.18240851 2.4320991 0.48478365
1.1020882 3.2987957 0.27265117
0.71076041 3.8751647 0.13915452
1.2798538 3.6159458 0.43254718
-0.0056847408 3.1182594 0.056674495
1.7614398 3.8056886 0.39305723
0.46390718 2.9328625 0.29395923
1.4747759 4.3929777 0.27146509
-0.013821301 2.5572441 0.49542478
0.18039457 2.4728925 0.16671042
0.47747892 2.8532071 0.38397166
0.012774105 3.188797 0.4535183
1.4456543 4.0694385 0.36519745
0.13919011 2.3140275 0.48402393
1.7889032 4.334599 0.38139823
0.020617837 2.3411427 0.39704251
1.4554235 4.241538 0.062843248
0.64374775 3.3049002 0.38747656
-0.41641417 2.425879 0.089378655
1.5766139 4.6366696 0.19279233
0.64791179 2.7373159 0.3256323
-0.044616614 2.4453111 0.24141917
-0.12056376 2.1268482 0.46196026
1.3533016 3.751786 0.023774592
1.3053772 3.6641488 0.21670714
0.74189919 3.2212577 0.33002979
0.39603412 2.6934996 0.10796331
0.33788082 3.2848954 0.34171596
-0.14109313 2.8090765 0.1395116
0.24300125 3.1833851 0.014297869
0.83007848 4.2322049 0.045906991
0.73062336 2.8521011 0.21912262
1.7538308 3.8774033 0.30659592
1.0749271 4.2335291 0.44748142
1.38798 4.12221 0.074326329
-0.14112268 3.2474933 0.24380511
1.784593 4.1221733 0.348975
-0.14914061 2.7293649 0.18379527
1.1893069 4.2904735 0.019730976
0.12925982 2.2916751 0.35220692
-0.32046005 2.8627164 0.3479335
0.31762618 2.6141639 0.39088237
1.3491858 3.4419215 0.43457189
-0.022767512 3.1727867 0.34419948
-0.12350982 2.8278942 0.10378906
0.0074350154 3.3276293 0.094738901
1.0977917 4.3060274 0.21409151
0.36034283 3.761987 0.024690153
1.2672635 4.4146209 0.41401139
1.2808191 4.5684881 0.47143388
1.2705169 3.3247244 0.38974994
0.47005489 2.8348591 0.49459186
-0.45807651 2.8370969 0.02737885
1.9010928 4.1653924 0.4500711
1.1226897 3.621784 0.28644323
1.3405187 4.2846346 0.25320238
-0.23905499 2.4254537 0.18037832
0.31553677 3.6874888 0.17593436
0.51374757 3.6987808 0.08158645
0.21448438 3.2684064 0.036846206
0.36785516 2.8726439 0.056011494
-0.31738195 2.6223783 0.1849893
-0.40349674 2.6626036 0.14290226
-0.25797883 2.749403 0.23634626
-0.22011469 2.2878783 0.41280279
1.0980756 3.4002392 0.24659812
0.019935602 2.3842323 0.4815374
0.45137843 3.4833503 0.46659568
1.5361568 3.8914244 0.38556817
1.6351503 4.484715 0.25818586
-0.53659469 2.7264695 0.43665567
-0.34979078 3.0149388 0.26891109
1.0989747 3.1358597 0.14583449
1.6233535 3.8240466 0.00199776
0.49347156 2.7167525 0.18160036
-0.29286075 2.7631919 0.28843135
0.68600518 3.8767805 0.41722965
0.99232709 3.4137983 0.28208676
0.98644781 3.1362324 0.40769282
0.5214172 2.6302767 0.20805924
1.5851612 3.7573123 0.15461989
1.2055559 3.5994232 0.1371247
-0.14734365 2.9914682 0.15016556
0.60391974 3.4776516 0.22112131
0.41069153 3.6878314 0.30006304
1.8098749 3.8295782 0.17343405
0.48513418 3.3590994 0.094436683
0.44005519 2.7018485 0.24344926
1.2830678 4.2524214 0.29640615
0.69949263 4.0527444 0.33489379
-0.38907924 2.6641166 0.39575839
0.5065276 3.080503 0.035011467
0.94761097 3.8029611 0.43764228
1.9448878 4.0798812 0.24655312
0.41195178 3.246453 0.19809024
1.7855428 4.4189816 0.20505641
0.092668571 3.3408518 0.014049778
1.010119 3.2247233 0.10660774
-0.66758186 2.7255189 0.44932595
0.83836359 3.734663 0.42777261
0.09203773 3.0800164 0.30013356
0.092379771 2.1951549 0.0030644543
-0.21750784 2.8021247 0.3054764
-0.44575727 2.5012515 0.35320386
1.030985 3.1165817 0.14824465
1.8777635 3.9506547 0.37219906
0.3875038 2.9382353 0.3134985
0.07463824 3.370317 0.38937259
0.51728034 3.8322716 0.38190809
0.58055764 3.3390107 0.19879781
0.078780442 3.2279184 0.048100974
1.3042169 4.5491996 0.084437475
1.9268888 3.9525304 0.44493201
1.0923461 3.1364856 0.27975014
0.11161505 2.8716102 0.31001315
0.80960089 3.4315219 0.33578411
0.046430953 3.110265 0.03049708
1.8427733 3.9740455 0.48858872
0.98182911 3.8962853 0.45350835
0.86798626 3.008085 0.22166203
1.4936308 4.0692959 0.12794362
1.7625767 4.2085004 0.068111502
0.060031127 2.3848808 0.07717713
1.5762459 4.6440396 0.09278281
0.47793394 3.8734694 0.36148167
0.0054743309 2.7338371 0.081363931
1.237303 4.3512311 0.45748603
1.4376614 4.4096489 0.0038977824
1.6166686 4.1338139 0.32720688
1.1067426 4.2492452 0.37673926
0.039140321 2.9550714 0.080267586
0.62721974 3.4526296 0.23792538
0.84204036 3.8157542 0.35277712
1.1732011 4.1394634 0.23029919
1.8820515 4.2179012 0.22369546
1.1711494 3.7534361 0.48121059
1.625365 3.9896162 0.3750436
1.510882 3.7433565 0.21869308
1.6094452 3.6778669 0.40153158
0.31701475 3.5040991 0.30546719
0.33546856 2.4397433 0.12929775
0.32937354 3.1269314 0.42112422
1.6029465 3.8722222 0.26538405
0.42622197 3.7997193 0.1070093
1.42708 4.7530146 0.22575007
0.47449505 3.3610778 0.43161955
0.49938819 3.1767511 0.060401805
0.13397683 2.4818723 0.14259395
1.2210344 3.2504871 0.1667847
0.49974927 3.13624 0.086482398
1.6665349 4.5614295 0.12334908
-0.14893909 3.2313905 0.40532836
-0.35566872 2.768837 0.00053173932
1.106377 3.5586495 0.48613635
1.5708034 4.0022273 0.454925
0.10133075 3.1446121 0.26837933
0.23896727 2.4267483 0.0078633111
0.39258888 2.7856529 0.13086297
0.58564353 3.8025479 0.14127608
1.727693 4.0757136 0.36630949
-0.024267565 2.318861 0.18270254
0.31864968 3.0225954 0.17072275
-0.15186943 2.6897991 0.068295524
0.11332224 2.4291193 0.22819798
0.16610542 2.2586992 0.38072932
-0.23278877 2.2751193 0.24958499
0.79489577 3.524709 0.31597558
0.63188332 3.7544436 0.45494467
1.4961627 4.0005732 0.38518539
0.047431633 2.405431 0.0082292892
1.5524523 4.0086493 0.12954356
-0.017267613 2.8860111 0.37842596
0.61739272 3.6999815 0.17600067
0.8167392 4.0801415 0.28765181
-0.40721986 2.9977841 0.32038862
1.9081296 3.9130301 0.4999612
0.45910785 3.23721 0.25798911
-0.012256064 2.1470749 0.15487416
1.3351214 4.6600308 0.33321026
1.4796339 3.5412843 0.45978215
0.92103088 4.1697154 0.1210722
2.0329537 4.1570058 0.44042951
1.1309298 4.0274396 0.3231824
-0.019389607 2.4285338 0.26986265
1.1025863 3.7473643 0.2666066
0.41080648 2.915091 0.26833925
0.12792224 3.1976461 0.04343991
1.2000076 4.314671 0.099771917
-0.22298935 2.8091781 0.068198226
1.3943225 4.019249 0.0899949
1.415675 3.6566367 0.031471457
1.9381211 4.1615224 0.075330429
1.1589899 4.4351811 0.39229456
0.3406257 3.7531981 0.050659399
-0.40364933 2.5446932 0.2786229
0.50648379 3.8967922 0.4569144
0.0098091681 2.4277601 0.33511886
0.31543612 2.4907329 0.2292119
0.64103442 3.0117273 0.09413816
1.0685532 3.1628897 0.31508306
0.93831724 4.0567579 0.40027586
1.0956722 4.1664472 0.47926015
1.5233505 4.3779688 0.43046188
1.4245311 3.5628772 0.42988169
1.6159534 3.8013141 0.26517141
0.27618396 3.2626367 0.25671962
0.020459007 3.1527679 0.40448758
1.3078865 4.7089186 0.46646434
0.59067631 3.1284153 0.097524136
0.61816353 3.8997169 0.13087717
0.041555002 2.9072533 0.026305629
-0.21811841 2.3207393 0.40488169
1.8720971 4.2971811 0.20703489
1.7862773 3.7929504 0.25594759
0.9192459 4.0650082 0.32148248
0.37358919 2.618078 0.17024612
1.2672205 3.9027851 0.070577815
0.8996349 3.4599209 0.06591744
0.47083992 3.6041563 0.25603691
1.1720598 3.7304561 0.20913447
1.5691899 4.4438558 0.015205
1.6636918 4.5725646 0.20571996
1.272366 4.1567845 0.35600981
0.13998923 2.8032701 0.35836908
1.435614 3.6794326 0.26345718
0.51295036 3.0873249 0.34989703
1.4140161 3.6308453 0.074603006
1.3201932 4.3235412 0.27269399
1.9611312 4.241931 0.17338185
0.44233084 3.6906359 0.37080479
1.367879 4.5396523 0.18004584
1.4334525 4.6030979 0.0013808836
0.32050973 3.2189918 0.31407008
-0.44759884 2.7653029 0.048575267
1.2607647 4.0978017 0.13477817
-0.0095139593 3.3609481 0.33785015
-0.44671705 2.5244853 0.41451091
-0.030385558 2.7411811 0.26924792
1.1331534 3.8915274 0.36852562
0.099042319 2.1541915 0.3098681
1.0209786 4.3786383 0.22415254
-0.30212358 2.9868393 0.13768457
0.15425825 2.5421748 0.4553459
1.433794 3.9276118 0.3841714
1.7872272 3.9863536 0.18010867
0.012483108 2.6620877 0.16464017
1.4328986 4.1084256 0.0080120396
0.95173311 3.8641922 0.2808021
0.17572831 2.6822007 0.048927758
1.6970444 4.2879281 0.068425968
1.030887 3.3407629 0.048431184
-0.25355396 2.2845604 0.0041484078
0.21452004 2.9847789 0.14129761
0.17194119 2.6484551 0.31588858
1.8800191 4.2001796 0.38629043
0.41040668 2.9554241 0.11596029
1.2258018 3.5370471 0.35479522
0.79047316 4.0403605 0.17739823
0.42461374 2.5462637 0.35646331
0.67514133 2.710902 0.065372258
0.57017314 3.3964837 0.17492992
0.77048147 3.6071274 0.3651821
0.58819854 3.8246109 0.1375097
1.7580476 3.8537118 0.3059828
1.0040027 3.0455196 0.41917664
0.29393533 2.790729 0.11186939
1.0325451 3.0360751 0.22191125
-0.055312097 2.891829 0.16381308
0.53551197 3.8062787 0.20682283
0.40263692 2.7212045 0.21946611
0.3522118 3.3263319 0.011611
1.4052151 3.757658 0.30741003
0.43109637 3.5878088 0.24454781
1.1196475 4.0660663 0.2783702
0.66202199 2.8774014 0.29304862
0.13834007 2.7152741 0.46869177
0.2681917 3.5346658 0.46993977
1.7773687 3.9084682 0.30480468
-0.03925005 2.8724463 0.25408858
0.65091801 3.9372282 0.36671928
-0.11193699 2.3196743 0.21112268
0.11728556 2.1889744 0.33572999
1.0850317 3.8296888 0.24468963
0.17739438 2.5697424 0.079299182
1.1018486 4.007338 0.15544726
0.081559293 3.2715867 0.35942426
0.35536018 2.7321265 0.30719048
0.32062599 2.511791 0.35354114
1.4749366 3.9438338 0.17587452
0.0002651939 3.3318777 0.13065389
-0.5998199 2.8010383 0.28325149
0.95196122 3.0406926 0.3085973
-0.23076414 2.8295407 0.071873337
0.68284321 3.9921937 0.21058936
1.2081902 4.1397228 0.030728161
-0.47914764 2.9034336 0.45146635
1.5716194 3.9024825 0.084673338
0.61486161 3.223197 0.15226038
0.13080107 2.4645131 0.31804055
0.65494967 3.4327092 0.28883666
1.1757307 4.0205631 0.28411487
0.6311425 2.7259793 0.31548613
1.8406138 4.1350427 0.19036052
-0.42161328 2.7644947 0.15328583
0.62096304 3.5088284 0.48263228
0.68061727 3.7099113 0.47144851
0.60279632 3.3759105 0.088426262
0.65569174 4.0414925 0.3035053
1.9095656 4.0795908 0.42149028
0.78963381 3.655545 0.19646983
0.068134815 2.5852637 0.4951632
1.0473452 4.0168481 0.028693067
0.30901644 3.1895247 0.13278943
1.0595008 4.0543027 0.052141931
-0.059341334 2.2311776 0.36604974
-0.53144777 2.5559139 0.2299601
1.8460611 4.1787782 0.0032972884
-0.34962901 2.8821495 0.49325177
0.98028231 4.1275659 0.053364675
0.94677079 3.4949005 0.35951054
1.6714219 4.4373512 0.042343255
1.847309 4.2204223 0.38511431
-0.40203381 2.4705935 0.19642097
0.34948355 2.8458316 0.048136596
0.54206365 3.0956905 0.15085055
-0.030316886 2.5314655 0.035290997
0.98162138 3.4708033 0.15292428
0.90685719 3.5735459 0.088423759
1.067359 3.3557835 0.49404979
0.88682085 3.989136 0.18784291
0.31308582 3.3707783 0.4586398
0.52188456 3.5212741 0.090555333
0.023039253 3.0452819 0.39907563
1.3642704 3.370738 0.074561186
1.2955377 3.8479233 0.27029786
-0.26930276 2.4501324 0.46891791
0.17879361 2.3014901 0.14186981
0.41419587 3.3636932 0.37757987
1.0925958 3.4355938 0.47955337
0.58802503 3.8896754 0.36928061
1.8114377 4.2601628 0.24323139
1.295435 4.4252124 0.09656892
0.087361552 2.1590328 0.45798627
1.3246613 4.308002 0.46027288
-0.29712608 2.3198214 0.15557066
0.81951231 3.4967363 0.40992936
0.60759485 3.4449131 0.45330912
1.6202894 3.636024 0.28900716
0.67953986 3.5380044 0.41027531
0.88694894 3.1571 0.37047818
0.36086023 2.573998 0.029126361
1.4798025 3.5189424 0.42856309
1.848444 3.9697154 0.45390269
1.0647509 4.3969102 0.30156609
0.89242047 4.2321448 0.019689918
-0.24780408 2.4497893 0.25912473
1.1492943 4.5310569 0.055161484
1.1155895 4.1685767 0.060724508
0.55793881 2.9358938 0.36423755
-0.16340567 2.8958988 0.45975035
1.2525904 4.6235142 0.035105899
1.5834792 4.5397711 0.048943941
1.3511449 4.1659431 0.09181983
1.2857338 3.8402054 0.062809184
0.63019598 2.8119757 0.0364732
0.68006903 2.929177 0.28310972
1.8731569 3.9348354 0.27163664
-0.56149405 2.5949063 0.14392377
0.15427291 2.3944039 0.277551
1.5775198 4.0618153 0.15207171
1.4678442 3.8299611 0.13676651
1.6366844 3.9590044 0.47486678
1.9652615 4.0457306 0.26294142
-0.28749022 2.8349586 0.45897672
0.44573143 2.6346905 0.023245547
0.33226642 3.0576408 0.11131857
1.6058407 4.1863322 0.13312517
0.63140821 3.2230372 0.041974444
1.150579 3.9251003 0.12687357
0.30735871 2.8807781 0.29809785
1.1100169 3.3684912 0.42612547
1.7980933 3.8409171 0.040082764
1.0229634 4.4027843 0.068532854
0.63307106 2.781168 0.4653784
0.27895367 2.7871912 0.032185536
0.14592496 3.1174648 0.28864413
0.69328761 3.5146716 0.49387893
1.6561224 3.6814413 0.20305139
1.3215917 4.3721371 0.47688603
0.24763431 2.2800117 0.17962041
1.0992717 3.9578185 0.27100489
0.88645363 3.5437903 0.28614533
1.1926591 3.5776982 0.27398571
1.247713 4.1041651 0.32634586
0.92313522 4.1349688 0.0060349572
1.5562286 3.7749786 0.3495262
0.29152846 3.2462649 0.13992929
0.41640505 3.0694492 0.1488809
1.3693644 3.839438 0.020304764
1.1833591 3.8293147 0.031751901
0.021695428 2.2724674 0.33529404
0.76643109 3.8272843 0.067697637
0.10450311 2.6745954 0.2038295
1.4153866 3.6885579 0.0066310163
0.16895039 3.4614897 0.43507892
0.34646007 3.3351884 0.012418738
0.1588617 2.2459743 0.34996906
0.50488907 3.0872862 0.080855034
1.3088436 3.546628 0.24705112
0.8928771 4.1348863 0.47543088
0.97856188 4.3186255 0.064092182
0.55459446 3.345016 0.43916047
0.71196145 3.7620826 0.1407185
1.7665194 4.4370751 0.23729914
-0.59840786 2.6156278 0.19428082
1.6743077 4.0346794 0.043849044
1.6595232 4.15484 0.074647963
0.75763333 3.7836754 0.28055647
1.331867 3.8955195 0.36462599
0.46117538 2.6198685 0.30374253
-0.19259372 3.0651619 0.27752647
0.46983138 2.9465768 0.056982726
-0.20062958 3.1007974 0.4282566
0.40289611 3.6913078 0.16533384
1.4068011 4.7009525 0.094560288
0.19868675 3.3149538 0.2219709
0.45610201 3.42961 0.3970919
1.0563618 3.462759 0.25985253
0.2945509 2.36253 0.45913374
1.6613539 4.0896811 0.015240269
0.68327594 3.4024591 0.45992401
-0.49666736 2.6946521 0.12847903
0.3021687 2.3793304 0.08860293
-0.35124668 2.4239829 0.044125207
0.37268654 3.1029539 0.001676874
0.52159846 3.7564127 0.39633685
1.8561627 4.3053341 0.24052387
0.99970704 4.2885852 0.38420701
0.5784409 2.6721325 0.40824127
-0.22011246 3.1239243 0.059677806
0.20403078 2.8290989 0.31394747
0.0010053841 2.6920683 0.23514247
0.43251258 3.3507421 0.26242325
0.79630029 3.7387753 0.036508325
1.4446744 3.4648159 0.29469681
1.0721202 3.8515987 0.23126955
0.64583874 3.3982692 0.39007556
1.8253533 4.2596674 0.34576285
1.1256562 3.9768283 0.37888786
0.58572167 3.7381644 0.35407659
1.3738316 3.4564373 0.075071558
0.46896535 2.7825959 0.31939924
1.1693813 4.0774298 0.14404237
0.44602275 2.784883 0.47725755
0.11599942 3.4246898 0.48437864
1.5861124 4.455162 0.2599659
0.81240779 2.9486132 0.025990229
0.37230799 2.4559734 0.17954354
1.3221748 4.440002 0.48047835
1.1281319 3.606374 0.38792843
0.74442649 2.7518783 0.41713399
0.85433459 3.2789733 0.028019078
0.25408208 2.3467777 0.34906274
0.66005117 3.1630487 0.46886793
0.30678165 3.3233421 0.4315598
0.27406684 3.2235053 0.23881526
1.790612 3.9128439 0.28697115
1.7628323 4.1611581 0.31655139
0.48332801 2.721499 0.21176292
-0.055246264 3.0944266 0.38084707
-0.073003046 2.1612246 0.38348165
1.3411952 4.2865252 0.033614103
1.3599268 4.5055437 0.066386931
1.1228111 3.4619143 0.24422339
0.71904159 3.6015193 0.10363179
0.17907909 3.5607476 0.43930897
1.2821506 4.4840908 0.48252445
0.43145421 3.5271776 0.12335386
0.15944992 2.2425687 0.20756002
0.88468719 3.3141994 0.11403078
0.36446059 2.82338 0.19684273
-0.027398264 2.2265477 0.031067437
0.178076 2.3062987 0.43610412
0.028944321 3.0187421 0.055995204
1.385443 3.7345476 0.36799821
1.5351443 4.464191 0.35649177
1.3570539 4.1273007 0.28144178
1.6635796 3.6724904 0.16883849
-0.0013977044 2.1415191 0.19822541
0.51272374 3.3886027 0.35008091
0.79854196 4.0703678 0.012333429
-0.52083701 2.8173721 0.10211692
0.23734866 2.3228023 0.14745048
-0.20835295 2.2263296 0.49739683
0.21632294 2.2767887 0.12082393
1.1110512 4.5046287 0.44929156
0.62857836 3.7693939 0.22161497
-0.14759047 2.691035 0.22476536
0.54537696 3.4307096 0.2752941
1.7765952 3.8814898 0.084964104
0.66239077 3.7235885 0.034622468
0.66529453 3.8253374 0.0077508325
1.0051814 4.3519411 0.037963297
-0.49355564 2.8591964 0.19164678
0.12032157 2.2232306 0.21302469
0.030320724 3.3384566 0.20572878
0.1226277 2.8158741 0.10906804
0.97228628 3.8466809 0.4055669
0.18232365 2.3012002 0.21857923
0.74061674 4.078855 0.25566503
1.4105325 4.1298833 0.13085513
1.8494246 3.9847727 0.040992212
1.3227881 4.577177 0.01714373
1.4229126 4.7991819 0.49541381
0.76452881 2.8411019 0.031797681
1.4401865 3.9730186 0.49429351
0.035282522 2.8809485 0.23939312
0.73529792 3.1064062 0.04853826
0.25406492 2.7863479 0.090567432
1.418613 3.476506 0.063706048
-0.20808183 3.0299499 0.31803504
0.41516337 3.5170474 0.36588779
0.64619112 3.6338501 0.30938128
0.72235018 3.7031603 0.29596594
1.1423943 3.2442012 0.32303864
0.70843291 3.9479749 0.011423263
1.238624 3.3693626 0.31041139
-0.17398809 2.570652 0.44161797
-0.14145981 2.9499846 0.12980838
0.46737224 3.1096427 0.15027669
0.60067606 3.5169027 0.087987028
0.21373574 2.3598189 0.47756183
1.3860593 4.2921562 0.32675198
0.88018763 3.1805744 0.17352074
-0.38322148 2.7126973 0.2095149
1.2516875 3.818862 0.14775914
1.5725946 3.5948844 0.19398227
0.70212764 2.8566387 0.45725232
0.31967953 2.7436988 0.34313616
0.60757399 3.5572648 0.070213065
1.599321 3.8406579 0.39414805
1.877026 4.3095474 0.44579625
1.8758998 4.1202798 0.26614988
0.79741031 3.7287111 0.37235266
1.4786838 4.5198097 0.2598184
0.44160849 3.0920372 0.46034482
1.247691 3.5397327 0.46822539
-0.31042659 2.5012038 0.022853276
1.4523009 4.6183906 0.1727667
1.1330843 3.6065736 0.0085331295
1.5647501 3.7706854 0.093858592
1.1250029 3.3122489 0.24677812
0.93611264 3.0412052 0.3331795
1.6442707 4.5914035 0.16244403
1.1434001 4.0091505 0.030537639
-0.13121176 3.245754 0.26049897
-0.056918293 2.8349752 0.36375126
-0.22352269 2.7319632 0.15070592
-0.097906291 2.8002632 0.062980913
0.88557792 3.2827532 0.23038462
1.0729818 3.1677554 0.30319372
1.0649815 3.9721723 0.36939526
0.36820576 2.5202889 0.40655106
1.7829278 3.9326887 0.24141312
-0.17462607 3.0259852 0.047502175
0.47628388 2.6341958 0.034333125
1.4518112 3.8690753 0.34966511
0.78901666 3.375761 0.18748038
1.3113482 4.1322117 0.0050312704
1.9242719 4.0536985 0.14545394
0.40693453 3.2832737 0.17896144
-0.2271293 2.2473807 0.49970183
1.1919996 3.9626746 0.053471372
0.88336664 3.4783671 0.10641991
-0.35561776 2.523169 0.03090011
-0.33916304 2.9097836 0.086730383
-0.039874244 2.9018209 0.23425555
1.7899396 4.0390139 0.44170099
-0.10989545 3.2870321 0.23192
-0.044437893 3.2642663 0.27767929
0.99807632 3.4559696 0.087511972
1.7539701 4.2186141 0.25527665
1.9340329 4.0360212 0.027751422
-0.35404986 2.535183 0.2381158
0.069526359 3.0146096 0.048813835
0.105521 3.2408111 0.49038315
1.0369358 3.0453279 0.32332268
1.392639 4.6773491 0.41138372
1.6562146 3.91909 0.40527219
0.31554285 2.9850276 0.36796898
1.7917354 3.8650219 0.029858699
-0.62040043 2.7770808 0.1941351
0.50807774 3.8146968 0.23019342
0.5956282 3.962625 0.044584718
0.01096513 2.3251269 0.3787221
-0.0063239909 2.7566152 0.2801078
0.31293795 2.3557515 0.28307486
1.0063486 4.4058247 0.23728843
0.74160427 3.9186351 0.33022889
0.83005321 3.0263941 0.066927485
0.36754018 2.3685865 0.092838176
0.46810651 2.5213797 0.0869224
0.90462285 3.7321544 0.048881996
0.040661748 2.3067307 0.032188337
0.17380333 2.551903 0.14326133
1.6555367 4.2837334 0.41300109
0.61116475 3.4622579 0.42813799
-0.17075948 2.4035113 0.42292759
1.0997036 3.1465073 0.33907089
0.070017882 2.7356374 0.40848786
0.23127936 3.1422744 0.40885782
0.460244 3.7010679 0.42769274
1.0966684 3.8022044 0.22026929
1.2461584 4.067492 0.31433886
1.261771 4.3250065 0.44801727
-0.20118126 2.7609308 0.17011833
1.9125704 4.1516094 0.47102523
1.5688937 3.8855169 0.17406061
0.8675347 3.9328949 0.19060823
0.05049435 3.3844063 0.42594025
0.14042236 2.517972 0.24802566
1.5148406 4.6128273 0.18672311
1.4320282 4.0820923 0.43616775
0.40006304 2.740464 0.22655298
1.8430004 3.9647801 0.10246351
1.5291647 3.8375275 0.44262144
0.1593388 2.4082148 0.027134607
-0.53932589 2.8610203 0.13907783
0.43951932 3.3591285 0.015739549
1.0090514 4.406961 0.48734865
1.2922169 3.4953775 0.12083261
0.24234238 2.4071789 0.0090296194
0.44885468 3.7850647 0.23886205
0.69505638 2.9972284 0.35921192
1.7287159 3.8859346 0.40226758
-0.51900399 2.7604454 0.011290316
1.9713943 4.0258145 0.099281259
2.032901 4.1945529 0.094378397
0.20186327 2.9630644 0.41950932
0.40641195 2.8920703 0.41374493
0.59524453 2.5958874 0.48557302
0.99964035 3.2167902 0.043851491
0.66562992 3.6274197 0.016273055
-0.017225219 2.0944459 0.12310701
0.90434021 4.2208948 0.17869221
0.44945636 3.8464913 0.13104589
0.53826237 3.853487 0.15028641
0.96200824 4.2721705 0.20743898
1.875374 4.1596317 0.47656423
1.3174672 4.0345526 0.14827035
0.75299591 3.8671253 0.14849766
1.0294892 3.468215 0.22527175
0.83336031 4.0364361 0.065315761
0.88953096 4.1183472 0.10479744
1.5980641 4.4544115 0.070269771
0.55931932 2.7667692 0.064196259
0.71667504 3.7213745 0.029198349
1.5223633 4.1909089 0.49241066
0.31573781 2.9150717 0.092911005
0.36474502 2.6672053 0.34643894
0.55711603 3.73295 0.24034314
1.4779609 4.0721493 0.39545617
0.54119503 2.6777689 0.3208077
0.31699336 3.4561932 0.25525975
0.79330546 3.8691168 0.058024283
1.5775269 3.6811543 0.13136886
1.4435469 4.3598576 0.48658377
1.6556531 4.3955073 0.22295032
1.4183193 4.5684433 0.43484688
0.22630206 2.3061962 0.041782737
1.3144404 4.1576896 0.45750284
0.32823125 2.9406374 0.16758023
-0.31847128 2.7002561 0.21586636
1.4541762 3.6497521 0.11863431
-0.027905762 3.0551443 0.49899107
0.38226369 3.1373272 0.035628855
1.0128206 3.6214719 0.35959354
0.98781377 3.5326383 0.12117155
-0.14496221 2.31457 0.027801849
1.6111871 4.2482185 0.056048665
1.9168746 4.2970691 0.35418236
1.5250964 4.3282471 0.070700586
0.051127981 2.9815402 0.43087509
1.1567568 3.7075982 2.1607615e-05
1.4888731 4.3821273 0.38293761
1.2313274 4.6311121 0.14989287
1.650546 4.5142145 0.36508361
1.3418832 3.631489 0.057708215
1.8277025 4.1738443 0.22017732
2.0095284 4.2279248 0.44540194
0.13078515 2.3396163 0.079821028
1.6983365 3.7774019 0.3637777
1.8261822 4.2494702 0.19272813
1.0555176 4.4335909 0.38748002
1.1175493 4.3717422 0.20329313
0.68426245 3.8117218 0.19819175
1.333184 4.4346833 0.0035447127
0.97232705 3.6507368 0.10593581
1.2573446 3.8553898 0.22831537
0.071022063 2.6673381 0.30553022
-0.23901808 2.5140984 0.37936315
0.22745091 2.7249334 0.40731698
1.7986603 4.2404799 0.056971915
0.62060487 2.8112471 0.044194348
-0.43832552 2.9154139 0.48761857
0.71528357 3.4868042 0.38623565
1.6352688 4.2485318 0.27567449
1.9202373 3.9936411 0.015528562
-0.27042454 2.8405573 0.22696945
0.57517546 3.9322774 0.43779901
0.41137019 2.4459522 0.2040659
1.862141 4.2141843 0.37995246
1.5028369 3.7870469 0.036159325
1.5059063 4.2674003 0.10356153
1.6138924 4.5344157 0.082180686
1.9014546 4.1417937 0.35495442
1.4786001 3.5993257 0.071775571
0.58166128 2.5927994 0.097727768
0.55252123 2.7537036 0.49051923
1.0975622 4.1345625 0.47032726
0.69077873 4.0135531 0.48255381
-0.53704411 2.7302916 0.10701992
1.2337505 4.1835008 0.20750327
1.4653839 4.2586894 0.47673202
-0.20084001 2.5610213 0.30218613
0.1810552 2.8764524 0.38715881
1.8811184 4.1882772 0.42984176
-0.13142744 2.5672183 0.43377969
0.065492228 3.1995463 0.0049084267
0.19368805 2.9909034 0.37154335
0.32418206 2.6086278 0.33921465
0.21795623 2.5668178 0.28728554
0.80956817 2.8832998 0.12307294
1.0692512 4.3843408 0.40354881
1.61761 3.6385462 0.17290744
0.60210556 2.9755445 0.41876748
0.15223508 2.4679255 0.027364524
-0.21805298 2.2429011 0.27437308
1.4114786 4.2941122 0.17532176
1.2348714 4.5123687 0.45717993
1.2415144 3.415735 0.05774669
0.42856431 2.8643763 0.18108788
1.3652689 4.3653703 0.20715599
-0.10238898 2.634696 0.17211035
1.7741376 4.1823945 0.17951247
0.12345981 3.0576 0.31154305
-0.32454076 2.8163197 0.42315653
-0.21258427 2.936559 0.086128436
1.0409905 4.011117 0.39818656
-0.2539359 2.5510571 0.34985012
1.9499463 4.2264757 0.41144639
-0.14186575 2.5656438 0.06552916
0.71175867 3.248601 0.41911834
1.5019293 4.216207 0.17971723
0.15849599 2.7774043 0.32405782
0.72325963 3.7358546 0.15432625
-0.15825862 3.0182626 0.057681303
0.10216647 2.105799 0.46396476
-0.04110612 2.9798956 0.30695626
-0.52258414 2.5974581 0.091564298
0.97274071 4.0707097 0.18933216
0.52640992 3.7656384 0.43947452
1.1848068 3.663275 0.12927692
0.92907244 3.2327058 0.3818123
1.5355647 4.151165 0.10062946
1.0863596 3.107451 0.45863584
1.5977764 3.9055357 0.37459895
1.8078365 4.1849179 0.37588325
1.498487 4.188498 0.23686188
0.66699284 3.3819618 0.13285659
1.2553322 3.5705712 0.021047318
-0.44472784 2.6345272 0.45918077
1.6522311 4.266633 0.12834479
-0.28091007 3.0540848 0.23569539
1.4316342 4.5813255 0.45334291
0.07872016 2.5454679 0.46079981
0.02644835 2.2467532 0.06960918
1.6573848 3.7943943 0.20292751
0.51630449 3.882309 0.44688326
-0.23448165 2.4002941 0.19966295
0.56530398 2.727834 0.31111676
0.62296695 2.8487635 0.19269104
0.5037483 2.6216192 0.409915
0.91940665 3.2950027 0.38190693
1.9576578 4.2566934 0.28838414
1.6556772 4.1627755 0.45340437
1.4438313 4.041997 0.031293914
1.8709683 4.205513 0.07973405
0.21082763 3.3449104 0.062689543
-0.042163074 3.1471903 0.28711665
1.2965189 3.5027049 0.3445797
0.24986671 2.9466293 0.42441079
0.87982428 3.9517095 0.46608451
0.83566451 3.2314725 0.098877713
0.33935302 2.7257311 0.20460275
1.6335613 3.8785434 0.38388905
0.85490143 4.2618265 0.095372453
1.0153635 4.3669019 0.21365191
1.8014635 4.2573676 0.11461069
-0.23805884 2.5861878 0.035110634
1.2206435 3.563751 0.10800835
0.36183488 3.1037745 0.35435116
0.27632153 2.5478921 0.23331982
-0.21209262 2.7485237 0.3732591
0.029895939 3.3455405 0.0098644337
1.0197078 4.0918403 0.096478708
0.7147429 3.411571 0.093901761
1.2627698 3.6728063 0.071742773
0.078532711 2.4272993 0.23292926
0.50676316 2.9715729 0.024344455
0.19165921 3.5846004 0.14565133
1.1127384 3.5800025 0.40796661
0.35743377 3.0994358 0.0039813425
1.2579207 4.1787329 0.34361053
0.49096525 3.8702564 0.30876109
0.72133189 3.7235923 0.18781719
1.4833775 3.7801957 0.43418315
1.3925062 4.6678495 0.079152927
0.19836617 2.2281067 0.20246056
0.94021195 3.4627314 0.3667956
0.74745351 3.8620594 0.35927466
1.6237164 4.2216887 0.024477467
0.99044013 4.0740356 0.28681478
1.1416627 3.9565961 0.11237113
0.7917282 2.979522 0.1000242
-0.42711714 2.5756514 0.45437676
0.53290159 3.2093143 0.059317801
0.28404516 2.8996961 0.010219821
0.54878378 3.3065925 0.020734722
1.7143674 3.8589437 0.20547318
0.71431017 3.728724 0.099545859
0.18346904 3.0654712 0.3109611
0.48367894 2.9729595 0.19407003
1.8912613 3.9990811 0.48219252
-0.048517022 2.6497195 0.048587624
0.35109401 3.0988419 0.4031198
-0.13283837 3.1956482 0.14226779
0.62864232 2.9374957 0.35993332
0.36277196 3.2900841 0.12785916
0.56229687 3.2664993 0.17897458
1.7339802 3.8383138 0.037624042
-0.17315954 2.3474874 0.34945884
0.90336359 3.9095566 0.022445627
-0.33587104 2.5528893 0.060565699
-0.51162225 2.577539 0.30742961
0.15996836 2.318228 0.071798429
1.693126 4.2056556 0.041489366
-0.085626304 2.9489493 0.15068556
1.8730721 4.0443864 0.47853994
-0.010587006 2.7703257 0.22751309
0.86046231 3.4179261 0.26440057
0.99103296 3.606606 0.44847703
0.59062773 2.7296274 0.30421999
0.64968675 2.8610258 0.11844423
0.89565915 3.1289704 0.0035208422
-0.0010472254 2.3916628 0.059474058
0.3608776 2.6389678 0.24068062
0.39301491 2.9588795 0.10645831
1.0865166 3.543987 0.16702698
0.86884624 3.5795629 0.44312131
0.040157508 2.0961235 0.14021455
0.72897422 3.6508198 0.35785249
0.29033834 3.6522691 0.40699628
-0.084964491 2.3663235 0.48171589
0.080113538 3.2062781 0.064203866
0.029948613 3.2863183 0.20304781
0.82274157 2.9981794 0.30136755
1.6185472 4.2446165 0.0014308784
0.21758071 2.3062711 0.16317111
0.51814795 3.4229746 0.4144474
0.25411868 3.2043724 0.43423435
1.1594731 3.4887779 0.26015601
0.23262437 3.209465 0.24167122
-0.20885019 2.8617768 0.4012256
0.2062851 2.2914958 0.29938486
0.25930122 2.7832675 0.24357863
0.81727332 3.9482131 0.30560529
0.037793361 3.0422409 0.026954226
-0.043444566 3.1356204 0.058311004
1.0324181 3.4443104 0.37821558
0.4263674 3.3244233 0.21418099
0.41307902 2.7796717 0.33060786
1.2764792 4.1237683 0.17597318
0.071661942 3.1365931 0.054496981
-0.4303658 2.8004923 0.084623478
1.3731619 3.5373294 0.26987353
-0.17565623 2.9103401 0.16972116
1.6480182 3.6798124 0.024846995
1.5803461 3.9761989 0.44170937
1.4149506 4.6363797 0.087335236
1.3135713 3.7043836 0.40484592
-0.097847722 2.6905482 0.034455977
1.4452014 3.9527996 0.3340179
-0.13090378 2.7794461 0.21052796
0.038619563 3.072345 0.14570203
0.61967146 3.209347 0.20374402
1.6422005 4.4767709 0.087701723
0.39341432 2.923048 0.098942675
0.61318052 2.9141154 0.23889777
0.39775938 2.6349242 0.17073812
0.26529887 3.5084486 0.30891111
0.46991768 2.4964209 0.087651126
0.049768519 3.2089386 0.26711416
1.358796 4.7341471 0.088971421
0.6526162 2.9840748 0.45444852
0.96594119 3.9070728 0.16293032
-0.27035487 2.6295536 0.45799544
-0.11767836 3.2210507 0.14524919
0.75465733 3.1882715 0.25164577
1.5961008 4.3739429 0.33549622
-0.096463643 3.2726276 0.27501604
1.7601856 4.0371761 0.28438628
-0.19904701 2.4975126 0.19421479
0.95917201 3.6058323 0.18047473
1.0638639 4.2560878 0.29766309
1.0988765 3.8345582 0.13040334
-0.39105552 2.464359 0.448569
1.3681592 4.5913649 0.42188123
0.24636431 2.7029991 0.075187027
1.3594397 3.725209 0.35019574
0.46548194 3.2233057 0.33424261
1.7064893 4.315887 0.43217355
0.74197358 3.4508595 0.17844455
1.8455632 3.9952371 0.4070735
-0.063393012 3.1929317 0.32858834
1.4176855 4.237608 0.088691138
-0.16259754 2.6817596 0.39112589
-0.33361459 2.4163702 0.32359433
1.2980487 4.3644881 0.48503914
-0.31128144 2.3691607 0.11435809
0.89300865 4.1363797 0.38228929
0.22647032 3.39642 0.097743869
0.28034166 2.7670224 0.34837294
1.1043912 3.4571249 0.40129068
0.52188098 3.2511277 0.34546849
-0.10746589 2.4259984 0.13535492
0.18229173 2.8888102 0.43388024
-0.29341459 2.4406891 0.19903994
1.1761639 3.7168996 0.076083183
1.1030438 3.6630726 0.31665578
1.7904328 3.9460442 0.2562539
1.0205468 3.7171216 0.16989362
1.2606783 4.3063745 0.34196121
0.89756656 3.3828878 0.46667147
0.18327695 3.2596011 0.22449912
-0.52543342 2.6570683 0.41310725
0.57741868 2.7027407 0.16289923
0.27235055 2.446764 0.42244405
0.63462824 3.7733963 0.11362296
1.2035092 3.8501024 0.31162301
0.51000619 2.9878781 0.36663991
1.1409214 4.5313497 0.11291628
-0.14700337 3.0182288 0.48262569
1.6308463 4.1420164 0.15421267
1.2489656 4.2410951 0.034750719
0.058175161 3.0941827 0.4528282
0.18326734 2.2317812 0.49713627
0.75453776 3.0427566 0.058800757
0.024158342 3.115052 0.46141607
0.70439124 3.3989418 0.19002129
-0.34447205 2.8493733 0.35897455
1.306111 4.309833 0.35056511
-0.48135039 2.8127801 0.26253685
-0.476767 2.6607707 0.44326273
0.30293196 3.1896095 0.29403341
0.25830713 3.529104 0.16031742
-0.011000608 3.3981459 0.17746966
0.38440728 2.9784384 0.27937037
0.44400939 3.4177771 0.16505948
0.63686281 2.8975282 0.41062018
1.3589047 3.7878704 0.33270824
0.86503381 3.0851004 0.18757759
0.17579696 2.5063403 0.14512181
1.2589792 3.6508572 0.047302131
0.76950645 3.6588981 0.36079001
0.3048692 2.3758512 0.31008461
0.75384754 3.2872112 0.3082931
1.2796466 4.267292 0.018314792
0.74040335 2.9344308 0.36259368
1.1849597 3.8904507 0.45475274
0.98839748 3.3285999 0.10641501
-0.046383683 2.9438636 0.18422036
0.63575107 3.8533773 0.30108505
1.4735848 4.246943 0.43963483
1.9766434 4.1452565 0.25408229
1.2725722 3.6680918 0.27917817
0.12665287 3.2025254 0.46775073
1.5505801 4.3945522 0.31693614
1.3491441 4.7513943 0.38553521
0.9607169 3.9738901 0.13496399
1.0896896 3.4609818 0.25524375
1.3915904 4.0620427 0.10534904
0.34410277 2.4300508 0.035844974
1.0014105 4.3275347 0.30926841
0.76542622 4.0513034 0.36888209
-0.06091816 2.7909667 0.0087194201
0.90200484 4.196949 0.38909784
0.81476754 4.0105424 0.18748699
0.061777096 3.2101846 0.18325725
-0.20585023 2.506546 0.041468091
0.6487484 2.7971549 0.17273971
1.1560504 4.455668 0.40978035
0.059769396 2.2032244 0.44016761
-0.34297743 2.910126 0.40902326
1.2067891 3.9845889 0.36364949
0.5288282 3.5499773 0.16483627
0.75643599 3.3963563 0.12266824
0.52213979 2.6896164 0.045438487
1.1055862 3.6970501 0.45146179
-0.2883555 2.4033403 0.20333189
-0.35340515 2.8202584 0.25580147
0.48462111 3.4479771 0.21528561
0.058019239 3.10904 0.26600462
-0.29035288 2.9497173 0.20904358
1.6201963 4.5098457 0.48403731
1.4023492 3.5707202 0.34506807
-0.3784287 2.5075397 0.071314067
-0.059950821 3.2299364 0.13052604
0.37282911 3.1827147 0.33964011
0.14773485 2.9959488 0.084191501
0.93259013 3.9364219 0.49914423
0.28155062 2.5153682 0.33974203
1.0004202 3.6232574 0.21133395
-0.10223213 2.7403932 0.14976496
0.80343109 3.6085236 0.46430346
0.94730228 3.3292043 0.023831585
0.26846328 2.6934023 0.33706871
0.37602565 3.1909599 0.29311267
0.67054337 4.0039921 0.079450488
0.50668681 2.8071499 0.3793394
0.38571247 3.6425128 0.23424748
0.95636874 3.0645952 0.31691444
-0.16082789 2.8219578 0.037120663
0.62942594 3.8249319 0.33503371
1.5699391 4.1552167 0.11967687
1.0390738 4.3831868 0.25469962
1.6869786 3.9374998 0.40493825
0.73455542 3.507405 0.19306098
0.11815768 2.3683057 0.16450632
0.23626478 2.9243584 0.27073607
-0.6136924 2.7504761 0.21508209
0.75041497 3.3740246 0.25334591
-0.13653956 2.7074468 0.10081308
0.3189972 2.5668893 0.023488279
1.8266724 3.9020693 0.23041506
-0.35727876 2.8588717 0.20563072
0.82634729 3.8364437 0.29420331
0.75648111 3.099684 0.067446925
1.4944923 3.9998496 0.15588757
-0.12232406 2.7699077 0.39916536
1.0035144 3.9413407 0.38147178
0.14774366 2.379503 0.1019511
1.1274481 3.5495098 0.4003453
1.407514 4.1248713 0.48798835
1.5928162 4.1388736 0.014645205
0.36546531 3.0787203 0.44461933
1.5011909 3.6878293 0.30174232
0.3187086 3.1240687 0.42308289
0.72957814 3.2855055 0.10175368
1.2830225 4.054811 0.41720521
1.071515 3.4107082 0.24877691
0.48076791 2.9957101 0.33071619
0.46715018 3.8744116 0.47993752
0.16272704 3.3332367 0.23356156
0.19692443 3.1971171 0.42662203
0.72546792 2.7928424 0.1787958
-0.040995724 3.0893853 0.24478249
1.7058324 3.9029257 0.029520329
1.0436534 3.9124413 0.22607031
1.626159 4.1933446 0.49893874
0.86118656 4.2557797 0.11886171
0.25636438 2.7289033 0.30092129
1.269214 4.5222735 0.29846334
1.6418756 3.9793763 0.212301
0.27913284 3.0813141 0.065922514
-0.28523517 3.0230494 0.089742951
1.0057063 3.2492406 0.48939303
0.028557235 2.0607972 0.059076056
-0.33888108 2.6787238 0.36623895
0.69077694 3.5673361 0.066769302
0.87388682 3.3752213 0.059832461
1.213963 4.0437202 0.22690022
0.44453576 3.1239083 0.16992369
1.8143733 4.2866163 0.28924817
0.36702868 3.2927539 0.072862029
0.52374518 3.6954086 0.035410456
1.2357746 3.7448733 0.12151279
1.1758807 3.7147641 0.13291135
1.3698786 4.0220432 0.49268901
0.42602643 3.8308952 0.30259946
1.0415601 3.781918 0.47984791
1.4595673 3.8716059 0.2732113
0.039495677 2.974349 0.013405779
0.78402936 3.6716657 0.18036889
0.32036141 2.3470452 0.0076621976
0.25962985 3.0260315 0.42190775
0.62019581 2.9659331 0.10190132
0.65395683 3.9632425 0.29242542
1.3596385 4.3853512 0.023000391
1.6595738 4.0233803 0.019696519
0.35149455 3.6564603 0.28145257
0.41790774 3.4190509 0.42713025
1.408071 4.7471623 0.25765085
-0.35854918 2.3848937 0.071477704
0.2954568 3.2613685 0.080911823
0.11368786 3.5081534 0.35187572
0.22512241 2.7340839 0.47411233
0.22125323 3.6026146 0.4370147
-0.57646924 2.6390083 0.29965889
-0.38560569 2.6433096 0.42828384
0.070407219 2.3544271 0.38965887
0.95834953 3.8546891 0.24361642
0.66375726 3.530961 0.21705672
-0.36883387 2.5071514 0.47990346
-0.32505053 3.0698764 0.32140484
0.45502916 2.9763563 0.31442285
-0.33327672 2.507786 0.49436793
2.0813403 4.1161456 0.48275292
1.8036932 3.8593447 0.41248915
0.9107672 3.05232 0.27626565
0.53569555 2.8188598 0.37668186
-0.40128201 2.8195617 0.19358575
0.97361535 3.5118184 0.00018859841
-0.24986424 2.3344445 0.30989617
1.6620561 4.4946404 0.30307734
0.66577673 3.9754894 0.48739436
-0.15064539 3.217237 0.28475493
-0.16701443 3.1858163 0.29706037
-0.14358719 3.0160427 0.31673613
-0.13493873 2.2648399 0.36678258
0.81139791 3.6626949 0.46689624
0.21849009 3.2092137 0.39852971
1.3326727 3.7376609 0.088813193
1.3193762 3.7525578 0.29539755
0.52715796 2.9316914 0.089760512
1.3727952 4.6577506 0.052813869
1.8486556 4.0749278 0.036433335
0.76564777 3.3315208 0.014731243
-0.24076141 2.6159301 0.42472231
1.081386 3.9813778 0.066065401
0.81095028 3.1214263 0.36704436
0.43255231 3.2189295 0.21731809
0.19743483 2.5930431 0.36050299
0.76935512 2.7747278 0.013655758
1.7794793 4.2711349 0.1566799
0.074329674 2.4952872 0.11098024
0.35157612 2.6661813 0.19097961
0.15662158 3.1702828 0.39104593
0.15659283 3.2953103 0.19393213
0.033862744 2.7792881 0.012127327
-0.0079082698 3.3816426 0.12189716
-0.14013141 2.3856997 0.39992353
0.65012485 3.4394486 0.03979215
-0.19905801 3.10496 0.041691657
-0.10911714 3.130892 0.21551821
1.1677901 3.1834581 0.36434916
1.4690131 3.8239336 0.47557887
-0.063200139 2.7340219 0.33396226
1.3538834 4.6350732 0.23655969
0.6269291 2.7649555 0.00010731933
0.44942528 3.0453629 0.4913877
0.92566311 3.603457 0.1772971
0.15281229 3.5271306 0.4563652
0.87775922 3.1398313 0.41740522
0.88434607 3.48701 0.3558147
1.4068377 4.793251 0.36135417
0.98960227 4.0594506 0.48683751
0.77418858 4.0676441 0.26869804
0.11203074 3.320925 0.22166699
1.5907946 3.8494368 0.27046669
1.3421185 4.0990233 0.48116249
1.5911664 3.7768979 0.22079882
-0.057936601 2.6877759 0.20669374
0.12777832 2.1318073 0.29935023
1.5034527 4.2979336 0.012424081
0.89881831 3.6791153 0.0025951592
0.50952518 2.8919597 0.38084373
-0.019957332 3.3097548 0.33814937
1.5883127 3.9814632 0.26555803
0.54118061 2.6668613 0.3570019
1.1151499 4.3878779 0.12460824
1.1809918 4.1621943 0.19027424
-0.10853171 3.0826173 0.45392343
0.72513127 4.002809 0.45534793
-0.052611228 3.0779817 0.23623943
0.27755085 2.8532414 0.012116117
0.054980356 3.0978324 0.14732715
0.041583586 2.1001546 0.1174514
0.88126719 4.1297636 0.2564511
0.39238068 2.6293442 0.30088598
1.3231735 4.7278128 0.25086328
-0.11956978 2.9852517 0.097770803
1.2324547 3.2477577 0.018905584
0.58231163 3.506928 0.47063285
0.22197388 3.4883804 0.37035778
1.7428943 3.972018 0.073895141
1.6021632 4.2155576 0.44259906
0.082275942 2.7429166 0.46330708
0.78584838 3.0359526 0.40471724
1.7035908 4.29427 0.48849651
0.89076388 3.4175582 0.48511156
-0.31051394 2.5048411 0.37572488
0.39803052 2.6259093 0.38113531
0.13003352 3.0543256 0.20803656
0.42748696 2.5076835 0.15577886
1.37963 4.6981306 0.23678631
-0.35735995 2.8195007 0.45365405
2.0900035 4.1277151 0.18722585
1.6306952 4.2756734 0.27565101
1.2672415 3.8306265 0.48448759
0.83371598 4.1665416 0.17073753
0.73816186 4.1357632 0.45900902
0.74735737 3.0720584 0.039576355
0.04566402 2.7651515 0.36636293
0.77242661 3.8036375 0.39471668
1.4608203 4.4370713 0.36087704
0.26707578 3.3973734 0.27696013
0.074600331 3.1965907 0.29029313
0.9249776 3.9348774 0.018327378
0.16394089 2.7922497 0.21751404
0.30519119 2.5193722 0.18873906
0.55058169 3.7227378 0.18286575
0.78054255 3.1449571 0.29766491
0.81331491 3.4480011 0.052042119
0.52410358 2.6032643 0.41663021
-0.57222432 2.8062336 0.261787
1.3885459 3.9076066 0.16140759
0.23040272 3.1731939 0.058091078
1.6924764 4.1743388 0.41514456
1.6108677 4.4114604 0.13728525
0.27495408 3.3504014 0.2130097
1.4039263 3.8229332 0.12742947
-0.26247695 2.798363 0.25626945
1.3306291 3.7310276 0.48066494
1.3635304 4.1397181 0.0086524906
0.97082084 3.8250117 0.49601096
0.11791667 2.6566114 0.17952667
0.56877834 3.5753386 0.012853676
0.87787551 3.7591608 0.18321781
0.55458301 3.3624308 0.46627009
0.86614245 4.2157755 0.3464981
-0.18215735 2.8288817 0.4946394
0.26916575 3.4588337 0.36970299
1.5532556 4.3492622 0.011265222
1.5944558 4.1439981 0.28568906
1.8723 3.939573 0.087691128
1.726288 4.0517373 0.27814853
0.0092819212 3.0494368 0.13402134
0.33141619 2.8363695 0.44560274
0.78924125 3.9331992 0.23122005
0.83959121 3.5966415 0.20838735
0.08055041 3.0531754 0.065843664
0.47691417 2.6113255 0.48645476
2.1021183 4.1231551 0.26788557
-0.59448349 2.6727049 0.46217817
0.68938702 3.8129864 0.48596281
1.1388649 4.1075921 0.10102646
0.021175692 3.3428092 0.46877673
1.1022559 3.3989379 0.1473047
0.41772783 3.6218901 0.051754914
1.6997794 4.3018055 0.31941262
0.27361739 3.2535522 0.16328755
0.37159511 3.7142766 0.21080916
0.31702209 3.6539145 0.21824688
-0.68079299 2.6821733 0.16626567
1.5701075 4.3529844 0.063517995
1.6765833 4.127399 0.40601486
-0.24344896 2.6620286 0.37328291
-0.085676938 2.2393184 0.47817582
0.19934767 3.2042155 0.40391144
0.45910111 3.3836172 0.11675981
0.14551231 2.1648712 0.46321908
0.49063745 3.205287 0.43792865
1.0565355 4.428164 0.41059145
-0.13907178 3.2330167 0.39247277
0.61959177 3.885164 0.1692616
0.96218556 4.0815382 0.3286491
0.49367705 3.7525563 0.14878376
-0.069544956 3.2405481 0.26368695
0.31104246 2.6747766 0.1189614
-0.40374652 2.5742269 0.44582716
0.039892804 3.1213274 0.45267159
0.30829731 2.5408266 0.20533834
-0.53583241 2.8582633 0.1902822
1.7309422 4.0754728 0.17538869
0.85728353 4.0367327 0.12283603
-0.34610119 2.4337087 0.018586989
1.3809733 3.4953144 0.46366805
1.8170421 4.3217173 0.42685589
0.65014762 3.4834292 0.055455275
1.1264447 4.0165529 0.40122107
0.70307219 3.9802539 0.28356594
1.067861 3.2138703 0.3657774
1.8852993 4.1387858 0.35866466
0.64398223 2.7520599 0.48047453
0.90575743 3.9785073 0.39747268
1.4123054 4.5142574 0.17317715
1.7188888 4.3653898 0.21360277
1.5820588 4.193933 0.39203241
0.91613853 4.2392049 0.18664196
1.3346891 4.2912083 0.0013427995
1.1754915 3.6122389 0.45289475
-0.12304907 3.0742755 0.0045168898
1.465239 4.5897117 0.09413787
1.340037 3.5156436 0.13234913
0.77648664 3.9135146 0.011623463
0.39417973 3.4258485 0.40122244
1.1553018 4.1341834 0.12979516
0.017996065 2.8413279 0.34612539
1.862465 4.3233647 0.31390005
0.63578999 2.8911083 0.15208057
0.17686532 3.3614271 0.30649412
0.52558368 2.6130073 0.22981225
0.57602894 2.6008892 0.12737335
0.4994753 3.4762292 0.18945962
1.3197584 3.7789657 0.091459744
1.0657345 4.131618 0.45620975
0.80551606 3.5536811 0.30229661
1.2129697 4.2475758 0.093388401
0.56960344 3.5852728 0.25634098
0.23267198 2.3430939 0.34660965
0.62151313 3.244699 0.26541549
-0.38922805 2.6134882 0.29632443
0.38962975 3.784652 0.30511388
1.3078518 3.9472289 0.15044853
0.18099336 2.4390647 0.31280285
0.036132105 3.3599877 0.18964957
0.16425304 2.8602941 0.45416582
1.5771382 4.0124807 0.3199544
-0.50711483 2.6465199 0.17904769
0.48448694 3.8300436 0.21808769
0.22977825 2.7831922 0.4384172
1.3184642 3.9466314 0.29293093
0.091961533 3.4448893 0.28614584
1.5510435 4.5747848 0.01219972
-0.035320874 3.1951063 0.10344175
1.7662094 4.0477962 0.071495391
0.27874616 2.9018488 0.31758308
0.19312517 2.5985539 0.47149995
1.5273424 3.9792397 0.37937143
-0.22009793 3.0033095 0.35509756
1.2434481 3.3902986 0.050758895
0.43799186 3.6732075 0.27284956
0.010437213 2.3437231 0.25118178
1.24392 3.5382681 0.11312895
1.1023813 3.7833247 0.04815067
1.6126868 4.1507516 0.14770669
-0.40207022 2.5295265 0.36800674
0.8133741 4.0088639 0.011347465
0.81513512 3.7652721 0.17111723
0.17281622 3.3840237 0.10365704
-0.17380382 2.5011058 0.15557656
-0.31031865 3.0683241 0.092291251
1.4953641 3.5778465 0.21012557
-0.023980239 2.9858983 0.3141934
0.68214101 3.2397079 0.054943245
0.96629405 3.3641269 0.24517798
1.5717177 4.0120363 0.074547179
0.54134476 3.9224091 0.49721664
0.8665269 3.6935134 0.33314079
1.3330425 4.6789756 0.26136729
0.30405828 2.3448784 0.49998382
0.83777946 3.131268 0.48740759
0.71713632 4.0350285 0.016569551
0.034090348 2.2584083 0.3736155
1.0467918 3.9117262 0.070745215
1.5985996 3.8261273 0.21140039
0.62729579 2.6351945 0.36707646
0.532947 3.362097 0.35535643
0.80157167 3.069855 0.14774033
0.13208503 2.3234942 0.12359956
1.1328163 3.5405378 0.13803168
0.80457312 3.8686438 0.24179558
0.99956071 3.5668061 0.20774084
1.0211096 3.6858544 0.2870492
0.69892609 2.9356301 0.092849672
0.42828476 3.8065643 0.17329288
1.8218724 4.2067685 0.1760855
0.94208485 3.9586623 0.46923432
0.72361648 2.9497893 0.06408681
1.2744957 3.6525283 0.13176017
1.3533252 4.6224761 0.27591145
0.079194404 2.8252037 0.15211724
1.3844252 3.5716765 0.35266873
-0.30668604 2.7828867 0.087691553
1.3458414 3.5660527 0.17137904
1.3672943 4.3324552 0.15867446
0.016860001 2.9106877 0.29475582
0.98757643 3.4341063 0.15417024
0.57814777 3.5824795 0.23413444
1.0693145 3.6351075 0.36778915
1.6727988 4.1496453 0.31650165
0.57133865 3.3496511 0.080255784
1.4311405 3.7806067 0.14645913
0.72670025 3.2349 0.031681255
1.3205351 3.3851526 0.10953765
1.4310099 4.7288771 0.45077357
0.53540379 2.72824 0.26678935
1.382333 4.3823967 0.42466149
0.26210389 2.5681634 0.27974638
0.80471516 4.0122485 0.47978437
0.31382477 3.3812926 0.14837505
-0.077750951 2.2158332 0.42355007
-0.2725457 3.0916209 0.047105007
0.72900122 3.3328209 0.22678073
1.1195723 3.2110744 0.24962646
1.5980934 3.6620109 0.20849185
1.178636 3.6637681 0.27666977
0.26885879 2.5946875 0.13024575
-0.18915336 2.4134309 0.23845409
1.2353228 3.3626816 0.16538163
0.86703569 3.5594335 0.042788491
1.473524 4.2119493 0.14658618
1.0126618 4.0241122 0.12889192
1.5759811 3.860492 0.34237444
0.028368909 3.089762 0.37472531
1.2512003 3.9850812 0.39732358
0.24780872 2.5149441 0.068843707
1.2776948 3.8326788 0.18404151
1.7929012 4.4226446 0.39708725
0.95736188 3.038893 0.44211534
1.2546052 4.1449594 0.18691492
1.5290025 4.2336345 0.44798765
0.23057249 2.5332487 0.30558935
0.91177583 2.9457295 0.4061791
0.056672048 2.463336 0.28143817
1.8142234 3.8854344 0.040904257
1.2514788 3.5769405 0.13535087
1.0251623 4.3874154 0.33156738
-0.31082016 3.0424011 0.054215256
1.748276 4.3527021 0.083040878
1.6432048 3.9666054 0.39782864
0.39489794 2.5582974 0.14695358
0.046924729 2.4649312 0.25396577
1.0338463 4.0710211 0.26597017
0.5491299 3.7596407 0.40974757
-0.28765219 2.7418642 0.43492442
0.12159342 2.6797028 0.049992535
0.83418238 3.1156042 0.031621706
-0.0023468966 2.5229352 0.010057681
0.25127941 2.7293406 0.22375455
0.70906377 2.9761815 0.33809394
0.11672153 2.701571 0.39586434
0.65488344 3.4103515 0.043651924
1.9219978 4.2982082 0.41034859
0.54429823 3.6900988 0.33832881
0.08568763 3.3828921 0.20231785
0.38315272 2.5332425 0.39963934
0.27028868 3.0703073 0.49913695
0.31768349 3.2912314 0.1848522
0.19691795 3.4973392 0.35387236
1.5724608 4.0204167 0.4483127
0.74916941 3.4698896 0.1550882
-0.036846578 3.3722854 0.42218649
0.15209199 3.5537457 0.055196896
0.1064406 2.8386796 0.46029854
1.2970848 4.5188503 0.41892961
0.58850074 2.7015178 0.47199431
-0.060726169 2.4991562 0.25484359
-0.3325403 2.7636471 0.09904477
0.87645179 3.123178 0.058813121
0.36477852 2.394917 0.21718954
-0.2243553 2.5454695 0.47200263
0.21105509 3.4260263 0.47020599
0.3037208 2.6730909 0.46576539
0.38038138 3.0647917 0.22465099
0.2830599 2.8252351 0.15661037
-0.27589577 2.6962855 0.19656797
-0.46778551 2.6505392 0.39451629
0.54157311 3.8036001 0.28207707
1.3356197 3.8499763 0.36930797
1.4585266 4.2261152 0.37996355
0.20514439 3.079771 0.15213774
0.52062148 2.5267284 0.081694916
0.2314143 2.5631251 0.21228698
-0.15469299 2.658742 0.45426255
0.61370462 3.7965713 0.14595039
1.2080812 4.5310779 0.4896684
-0.1097308 3.2741838 0.38505587
-0.24101569 2.5104096 0.33124977
1.1319101 3.5309873 0.013102312
0.67043054 2.883508 0.28448582
-0.052993588 2.5883889 0.093713023
0.41791391 3.4084132 0.095872112
0.63209283 3.8874385 0.21314956
