# .PCD v0.7 - Point Cloud Data file format
VERSION 0.7
FIELDS x y z
SIZE 4 4 4
TYPE F F F
COUNT 1 1 1
WIDTH 1476
HEIGHT 1
VIEWPOINT 0 0 0 1 0 0 0
POINTS 1476
DATA ascii
1.7008576 0.043515526 0.06335941
1.8393532 0.70729738 0.14917347
2.0375152 0.31937858 0.33518088
1.0668727 0.32385889 0.045054961
1.1125749 0.92238826 0.3843084
2.9972007 0.13697988 0.43115747
0.9399634 0.88874984 0.20462032
2.9123769 0.23165089 0.47630939
1.3127338 0.38031524 0.29936218
2.0168803 0.089695103 0.15023746
0.67711598 0.65664762 0.17199521
1.0572724 0.26976538 0.025643917
1.9523133 0.94893706 0.18533321
0.96339852 0.30456129 0.34726265
1.2337283 0.67541963 0.30845678
0.53957862 0.67448652 0.37694672
0.12652339 0.98780763 0.32132164
1.3542453 0.95859987 0.43714708
1.2121016 0.3961778 0.1273047
0.008274667 0.068471253 0.17215227
0.90969938 0.29417658 0.00047608209
1.9416707 0.64660072 0.13535877
2.0955341 0.29737183 0.10982729
0.20753339 0.61850464 0.26210794
2.2911093 0.029747427 0.099817745
1.14185 0.20960696 0.43706098
0.40353033 0.25178143 0.4309648
2.3314602 0.70319653 0.41026473
1.9543427 0.1072304 0.10835364
2.7181709 0.10998861 0.14258926
0.75108457 0.41322175 0.28967756
0.75394106 0.060445283 0.11297792
1.5660937 0.75895667 0.26166385
2.2250574 0.82813448 0.070916176
0.79770499 0.59183753 0.085789889
1.3966115 0.97245419 0.19059338
1.0189774 0.10696432 0.31648409
0.60476619 0.88411772 0.16808234
0.06635461 0.53556532 0.22169754
0.71647644 0.44162229 0.27669185
1.5720119 0.69198382 0.48330271
0.31007734 0.94329751 0.013525356
0.98794484 0.46532872 0.3930037
2.5579278 0.20701453 0.30707091
2.9834249 0.47291619 0.1029897
0.49816433 0.93845338 0.089216806
1.6417246 0.27811247 0.14269897
0.54062903 0.47970122 0.084757827
1.549123 0.50181943 0.35254049
2.8793082 0.74064487 0.073351629
1.5394593 0.26464888 0.41934353
1.4392756 0.36800799 0.39099231
1.5204278 0.69732296 0.12365667
0.87844992 0.54996562 0.22716393
2.7208755 0.54444057 0.46362203
0.3388136 0.71049535 0.43284869
0.87411445 0.25773689 0.071904935
1.7303083 0.43794656 0.31175554
2.2388551 0.95432091 0.062665254
1.3540981 0.91409034 0.43298769
1.7942079 0.4272435 0.06531214
1.3102691 0.90700203 0.24931614
0.65622294 0.41381133 0.097977623
1.398163 0.70662796 0.37296042
2.7611465 0.61358643 0.14518072
2.5428786 0.72652429 0.00042839651
2.1399708 0.017895795 0.12929684
2.5714004 0.59466523 0.34827012
1.4419338 0.34095028 0.32543057
1.8179252 0.79231632 0.28247577
1.4158514 0.3903856 0.49609751
1.8077242 0.827142 0.44959855
0.30362111 0.045882955 0.1565042
0.89148682 0.51193726 0.0098181777
0.12924932 0.43231943 0.31661141
1.0003335 0.27994564 0.17987356
1.0029039 0.99326921 0.18882145
1.778685 0.85040271 0.48615405
0.86830574 0.33104727 0.15662919
2.8208892 0.93702233 0.052787349
1.5157439 0.4089728 0.24798015
1.4923289 0.011547564 0.16155113
1.1899202 0.1127546 0.18449262
2.1289454 0.40991688 0.44046125
2.1878543 0.45299998 0.15662095
1.0875227 0.78644449 0.29659376
2.166764 0.12074584 0.29322839
0.29969287 0.71364081 0.21842974
0.21661721 0.0030760844 0.38395339
1.1563923 0.94337249 0.35246456
1.4731165 0.44862044 0.056950964
2.9609973 0.9460634 0.062724747
0.93030417 0.34270346 0.11910205
2.0372598 0.052351907 0.32406047
1.6800274 0.78163671 0.050560467
2.6197531 0.1441443 0.44378272
1.3993156 0.86639899 0.0041556396
0.15868597 0.96629661 0.36097607
1.4692644 0.038502373 0.36251411
0.77298474 0.4239665 0.33420035
2.8877721 0.91500533 0.058510572
0.22947787 0.90200448 0.031542283
0.60582638 0.21210586 0.20289402
1.3204386 0.8911925 0.22906996
0.2648015 0.45120159 0.11988832
0.56816429 0.32445258 0.19196047
0.23086064 0.79089111 0.12515998
0.25579447 0.84378648 0.1083083
2.4216509 0.33354127 0.12755948
1.5967355 0.59120286 0.33954275
0.60193753 0.55379355 0.29704541
0.95300096 0.63028616 0.24804763
1.1422547 0.8322283 0.35410056
2.3596187 0.27237448 0.2996968
0.73403853 0.36064166 0.025297588
1.4533684 0.55002975 0.18752389
2.6051314 0.62698328 0.082969449
0.3560912 0.71224815 0.004862681
1.005941 0.51946509 0.17163332
1.7712979 0.051710207 0.46723473
0.80855435 0.25235605 0.24413152
2.5908267 0.57002306 0.059274603
1.0791126 0.95077461 0.47538874
0.20371598 0.73731416 0.11157599
2.0018969 0.98199368 0.29189682
2.1536822 0.46644986 0.066911697
0.27882561 0.33482695 0.38040334
0.77664232 0.45352402 0.23652741
0.80581838 0.78883767 0.49625996
1.8356183 0.37927032 0.022115048
1.6390268 0.64878839 0.14829308
0.10381585 0.51239735 0.43330458
0.45946345 0.87210155 0.40869188
0.31179592 0.94000685 0.27734897
0.9812519 0.60730582 0.2683458
2.7326329 0.3251999 0.0015707347
0.134103 0.41814178 0.1689842
2.416523 0.67702252 0.3957462
0.83568758 0.94562864 0.29016504
0.81324726 0.55750144 0.47980019
0.94593751 0.10384368 0.30419442
1.835696 0.13844897 0.060393084
1.4355235 0.29160345 0.49644387
0.88767487 0.39553544 0.46644729
2.5517688 0.72261941 0.27010021
1.1618435 0.633497 0.43270016
1.171268 0.67819798 0.14177103
2.1851733 0.4837057 0.48028231
1.5596505 0.76226819 0.45309666
0.30064079 0.033350624 0.23184736
0.17944199 0.34866315 0.28376922
2.0046084 0.96056181 0.3529937
2.366967 0.43906963 0.49879542
2.3456302 0.73496127 0.19656314
2.1443138 0.58555084 0.057872828
0.76491505 0.97283202 0.37462133
0.36111596 0.36325467 0.21372032
1.2117422 0.091645733 0.45557317
1.0934361 0.61152923 0.33670726
0.81201595 0.71174282 0.35338259
2.2031002 0.77155685 0.027714146
0.90571535 0.43975964 0.0079950457
0.023677511 0.22874863 0.22752987
0.016450025 0.010625334 0.095010497
1.1958288 0.72539663 0.38778591
1.5430658 0.98036832 0.37420192
0.79079372 0.10074029 0.055829242
2.0731156 0.50465435 0.10165211
1.8065546 0.86913306 0.40741673
0.8267982 0.13980503 0.26328814
2.9470937 0.87417173 0.14906655
0.11337855 0.17607686 0.36894637
0.16134882 0.18396936 0.48332068
1.526528 0.18945271 0.48863336
2.096591 0.58806229 0.35133168
1.4233065 0.10241758 0.34151581
0.66851789 0.36601549 0.39188597
1.0034933 0.05705405 0.14421314
1.6134059 0.65923893 0.078779668
1.0579064 0.93483829 0.14868218
2.6376352 0.91720289 0.085768051
0.53203446 0.95499575 0.17380649
2.7457128 0.0087786652 0.26579118
2.6456368 0.51762134 0.36051753
2.5774369 0.21648501 0.15454867
1.685427 0.69092047 0.20575747
0.73452193 0.91375977 0.38876522
0.085837722 0.24825756 0.41729224
0.95111662 0.78605956 0.2469117
1.4237946 0.13869502 0.21433085
2.3158877 0.017906733 0.1729323
2.8304961 0.19525155 0.15043016
0.87333494 0.11048912 0.15481949
2.468082 0.99236804 0.41363016
1.6311871 0.85151368 0.021872664
2.5584791 0.41332272 0.36733291
0.79302388 0.65816331 0.32421279
0.12561522 0.68677592 0.44834158
2.6293688 0.0038147797 0.34137136
1.1108389 0.47841299 0.41071886
2.3968241 0.25037557 0.41967225
0.43441781 0.19387425 0.017298013
1.3369987 0.48498592 0.072542571
2.2659156 0.30767989 0.068726599
1.7476966 0.8514089 0.49448344
1.8789326 0.70423526 0.2011448
1.0829301 0.96857655 0.030226476
0.028206877 0.010448316 0.37361443
2.7182565 0.88690454 0.37552181
1.7664846 0.25718415 0.11472832
1.2307978 0.056125507 0.2399161
0.74883121 0.20093144 0.33685324
0.85261935 0.64659768 0.07934618
1.2878747 0.40190291 0.23318613
1.7002343 0.98446846 0.15889058
1.6671351 0.61077935 0.011008208
2.8740039 0.97175604 0.49529651
0.055362772 0.98115832 0.00052065495
2.2970493 0.88724381 0.44397292
1.5501803 0.47607198 0.072565004
2.2385502 0.88633794 0.10062776
0.67804676 0.13594835 0.20109348
2.6991661 0.42015478 0.024392325
0.1752432 0.84944636 0.22534379
1.5743599 0.41619116 0.21757802
2.5277033 0.97190285 0.022967704
2.5937526 0.92990416 0.008845727
2.5655315 0.94835842 0.4994249
2.5686555 0.71404153 0.44304681
2.2324932 0.23076829 0.1810828
2.6678832 0.97695172 0.12425176
0.27164966 0.20296729 0.19222593
1.4782106 0.10268933 0.40230331
1.6245645 0.16110373 0.32702652
2.9766271 0.68589038 0.035122085
1.2820953 0.52845818 0.021073509
1.4199016 0.39304236 0.48602557
1.472976 0.24821953 0.46020478
1.4695253 0.10443804 0.31722555
1.1278061 0.84860241 0.43260971
2.2143028 0.73789674 0.42108554
2.9598134 0.82844663 0.022569189
1.113169 0.32118347 0.07391385
0.52698892 0.86270499 0.15446572
2.4891479 0.85491407 0.49741089
2.6998804 0.28227916 0.26163998
2.8263216 0.75557971 0.45816115
2.742475 0.24657166 0.08227092
2.5037038 0.73641342 0.13448994
1.407057 0.11234879 0.058791142
1.0027153 0.85044974 0.42773953
0.52922863 0.83705419 0.34196284
0.66464376 0.20811054 0.0025545815
1.1081269 0.38377351 0.43390706
2.0349212 0.21348949 0.3613641
2.0193865 0.11344965 0.0025036675
0.58922642 0.055556815 0.38029352
0.33819333 0.96971518 0.0035793381
0.83181882 0.80428308 0.37178606
1.6387585 0.27330211 0.42796046
1.9915054 0.60754055 0.35318533
1.5579425 0.78395009 0.27171242
0.60971951 0.005498006 0.37576771
0.62504703 0.37487364 0.067654446
0.22848941 0.053180676 0.1743992
2.3966739 0.72630954 0.23112401
2.411696 0.92271835 0.25890243
1.693457 0.035449442 0.24376
1.714933 0.31272238 0.14590155
0.94564933 0.85897523 0.2825526
0.51341206 0.52281034 0.086322881
2.632524 0.042124499 0.47829792
1.2627985 0.24536434 0.48104692
0.51740474 0.45371333 0.16848375
0.92333144 0.52987647 0.19507408
1.9697266 0.32876778 0.058228847
0.35647064 0.13266644 0.019588014
1.9098852 0.69715208 0.037312735
0.37244523 0.26879644 0.19367392
1.2478545 0.58401287 0.12316155
2.9431701 0.75515026 0.38456672
0.46110737 0.63265824 0.40562895
0.33089492 0.05359108 0.02831113
0.2171765 0.22605932 0.25516781
1.228079 0.53383648 0.020106032
2.3985233 0.19041198 0.18448992
2.7478964 0.30923554 0.25082314
2.8654246 0.94586396 0.099399187
0.08930099 0.070012338 0.23379742
1.2513446 0.48596382 0.025803853
1.9903139 0.46702051 0.40337896
1.2977141 0.62072301 0.21970809
0.73148793 0.73102129 0.24650362
0.90135467 0.80341345 0.35953328
2.4323614 0.2127731 0.12645152
2.5529976 0.012280909 0.22165751
0.6599372 0.92824644 0.37627527
2.164876 0.88338792 0.34920725
2.7612712 0.91315496 0.38421342
1.1640557 0.33026978 0.12719533
1.3188788 0.99370772 0.36070558
0.73915261 0.4262791 0.17106709
2.0574012 0.67010844 0.036577731
0.53642285 0.97055995 0.43828446
2.6936226 0.78134716 0.044671007
0.45233172 0.63234633 0.050811462
1.7822767 0.85232544 0.014934668
1.0399284 0.57395077 0.45662865
0.13517198 0.49437451 0.4132061
2.4404526 0.88239306 0.078341
0.2036245 0.32201931 0.075194865
2.3678582 0.56840354 0.28833443
0.39426064 0.25420389 0.12338863
0.61372703 0.43301153 0.10866861
0.24343377 0.33088571 0.49934217
0.51145983 0.48166296 0.31551534
0.81632859 0.075755231 0.24167806
0.9059366 0.42239806 0.028653452
0.64570844 0.46745539 0.2758407
0.12494504 0.28093955 0.21703725
0.59499103 0.34881437 0.3780469
1.0461602 0.13810042 0.16224866
2.7761667 0.26952064 0.2893506
0.51649857 0.4740963 0.0058563682
1.1685102 0.55524087 0.17129923
1.1645633 0.7257275 0.41213071
0.057655424 0.99783701 0.45000833
1.5077238 0.29981589 0.16120736
1.6796446 0.51505202 0.39493504
0.33468878 0.55670035 0.03540482
1.6369122 0.75503075 0.20981202
0.90519363 0.10375081 0.27886221
1.8786856 0.029139742 0.41362253
0.61478925 0.20130593 0.15067068
0.6499275 0.59080935 0.42829114
1.6777228 0.97899711 0.29115486
1.1505071 0.99821562 0.29007339
0.85055709 0.50079018 0.43998134
1.8178012 0.060671702 0.19750735
1.1874115 0.17223462 0.47585753
1.3998405 0.71787202 0.3533729
2.6587126 0.019603251 0.40524831
1.3318858 0.64583176 0.41981816
0.81362104 0.85076153 0.020471143
1.7176452 0.067404039 0.31587583
1.2873919 0.62664497 0.30537438
0.034321152 0.01014737 0.30448216
1.7747614 0.29366639 0.054877259
1.4146495 0.89960015 0.08521311
2.5996935 0.29540399 0.17133042
2.4548388 0.76201749 0.030266443
1.5750762 0.64825499 0.040068068
1.006566 0.092216909 0.36298397
0.52547508 0.36342391 0.28836474
0.64830196 0.93597227 0.32206675
2.5435569 0.36510292 0.13538925
1.375803 0.37654331 0.14046293
0.20269604 0.96813047 0.28729615
0.53195959 0.43968031 0.23709622
1.0432383 0.30624482 0.3847982
2.0712209 0.12452441 0.26580694
2.2528195 0.64954978 0.089934416
2.493228 0.98507184 0.13604288
1.6711316 0.16023017 0.31775483
0.40132007 0.37633082 0.28574097
2.3337207 0.2241831 0.46829244
0.14605616 0.68278414 0.1565641
0.98883379 0.75034946 0.14062934
2.7126107 0.92766935 0.36046949
1.135188 0.27541542 0.013591892
0.44397718 0.96582234 0.0758541
2.0388188 0.71676219 0.40062901
2.5784254 0.54783815 0.3931649
0.39468256 0.10488202 0.47327998
2.3012116 0.23865539 0.16144541
1.0156574 0.016562257 0.27353695
0.82541215 0.065247647 0.11492902
1.7647967 0.39485893 0.49010375
2.6085727 0.29906246 0.45393842
1.7713897 0.67745847 0.09164612
1.852941 0.82545084 0.074557297
2.3080657 0.5050571 0.4329384
1.7118396 0.3645322 0.20685746
1.070829 0.49609306 0.25929847
0.91050905 0.26316357 0.37862617
1.8791815 0.60171604 0.38690728
0.52040327 0.87685347 0.41953111
1.2099774 0.46511903 0.11696056
1.1505998 0.33464327 0.2664918
0.87423033 0.92510653 0.10522103
1.4241071 0.54275352 0.017946443
1.8714508 0.31210873 0.270475
1.4690812 0.8827219 0.45274109
2.7102258 0.23966494 0.20078762
1.2660166 0.54316795 0.33236942
0.53777355 0.16956177 0.13322744
2.8592172 0.34302953 0.071654156
2.3764038 0.7463553 0.30421367
0.078167289 0.12988858 0.4715353
1.6771181 0.42129868 0.43408856
2.3084443 0.89600104 0.20546532
2.4161229 0.51981795 0.36151966
1.0389729 0.0095116738 0.30288064
0.75541937 0.9129203 0.4227131
1.9601451 0.33492583 0.19429708
0.9543615 0.5141837 0.27907798
1.7537261 0.46725613 0.45059273
2.183651 0.25939074 0.32377037
1.0089331 0.28544652 0.38871467
0.8381449 0.84448588 0.09936402
0.44267628 0.6139673 0.047364533
1.6754682 0.41934156 0.30727351
0.84458619 0.76566583 0.31202936
2.66187 0.017472304 0.26848951
2.1981487 0.67085397 0.43595243
0.36393109 0.98897451 0.19304426
2.038399 0.57354987 0.42667231
1.7419553 0.30143359 0.056367695
0.68457764 0.63774461 0.19909096
0.016865706 0.91712624 0.12133389
0.61304981 0.064685002 0.42831752
0.89723706 0.62317437 0.13798831
2.7408781 0.90470314 0.020821238
1.6130543 0.79199314 0.029557392
0.22399127 0.52470934 0.36498439
2.8397057 0.6460197 0.35947165
0.99797136 0.325486 0.1462466
0.55800527 0.90613776 0.29696339
0.89621145 0.13433032 0.11583569
2.0907571 0.13995223 0.074398816
2.8187604 0.34430218 0.10674132
2.3886657 0.64338118 0.41832852
0.21659558 0.55700725 0.37068006
0.34152302 0.094691992 0.26667663
0.51886737 0.16935575 0.029031308
2.7087736 0.11592434 0.35204116
1.8656036 0.44858146 0.014784165
2.7430832 0.63458323 0.46785304
1.5248635 0.9333204 0.035018217
2.2198777 0.63023943 0.10499433
2.6662705 0.56982625 0.27714542
0.30671838 0.36604816 0.098836005
2.8166895 0.4382467 0.37733963
2.0407698 0.55208772 0.42468563
0.64082974 0.72504348 0.009363493
0.81501758 0.62796807 0.067325667
2.9272645 0.24983592 0.29161641
0.015969547 0.16419698 0.10890801
2.8230879 0.67248482 0.075568199
0.033197168 0.41244403 0.39068791
0.66316313 0.30120084 0.17560105
2.3260357 0.4034403 0.35862514
2.9190516 0.3423368 0.077748492
2.1830895 0.022593435 0.35379234
1.7312031 0.23620336 0.21631408
1.787384 0.50787586 0.030298114
2.1913381 0.48363075 0.15521608
0.94103646 0.48895392 0.23731457
1.5944844 0.4299832 0.073556967
2.0478938 0.44104892 0.27977899
1.3920212 0.6621033 0.43037939
2.4456275 0.43744853 0.13209955
1.5973784 0.41046575 0.30326796
2.0638692 0.13816223 0.31456468
1.1866233 0.71522993 0.43266633
2.4845078 0.31102464 0.18660429
2.6662965 0.041470647 0.42841965
0.59759301 0.35514948 0.17289662
2.0214803 0.8866443 0.38788822
2.4628222 0.56927556 0.10841269
1.1414962 0.033282608 0.43946436
0.72377253 0.84849179 0.15818861
1.5163698 0.38095126 0.36342147
0.33597755 0.0689077 0.4325026
2.2233655 0.46444884 0.29011756
1.8193636 0.29261813 0.44562986
2.9389894 0.18138365 0.46636519
2.5095072 0.38058132 0.14393993
0.54688698 0.05440814 0.087262072
2.8742163 0.87534893 0.37189984
0.52469242 0.2558476 0.38854113
0.16147852 0.49710512 0.31278703
1.1106101 0.0025617196 0.0032626684
0.29113907 0.11455423 0.037716519
2.8861547 0.85567605 0.26994094
1.62686 0.46213061 0.41624999
1.3006392 0.44179374 0.0069418233
1.0988303 0.27829614 0.19723248
1.9624698 0.46059179 0.22443655
2.4860423 0.41866392 0.162111
1.7174413 0.59356141 0.2900348
1.0486883 0.64738756 0.038587362
2.9254105 0.017590944 0.039868221
2.9449866 0.1146373 0.097145341
0.17128561 0.076688848 0.02498338
1.7909312 0.61897552 0.25604868
1.2884312 0.052521899 0.47694555
1.3300822 0.41879869 0.11609363
2.5134771 0.072955303 0.34638953
0.8600964 0.90163606 0.055721484
1.8327625 0.47411653 0.35250217
0.57297128 0.82367927 0.17619595
0.80449551 0.79881608 0.18499142
1.0437049 0.78047824 0.24231008
1.6265769 0.83757347 0.28065449
1.7764771 0.43455055 0.09014225
0.31276926 0.86402762 0.1164032
0.1744426 0.30738834 0.32580253
0.8710044 0.14521402 0.36228019
2.9493415 0.43191281 0.31309822
0.28367051 0.042833641 0.050156496
2.3986835 0.23382407 0.46199614
0.4558593 0.50198925 0.36140418
1.5658078 0.84989083 0.25164333
0.019668311 0.39208314 0.17043005
1.7035953 0.9842422 0.38770533
2.2444489 0.0884986 0.31971914
2.942868 0.14664613 0.47341329
1.8976833 0.43698093 0.046020303
1.0713644 0.42009479 0.26197672
2.9499538 0.51465166 0.28339353
0.25089282 0.31421283 0.40030557
0.022869609 0.46616593 0.15130019
2.1912947 0.98810184 0.076245621
0.70115465 0.99465799 0.27228719
1.723735 0.56252307 0.26440826
1.0499669 0.3106727 0.30865756
2.9682817 0.29162872 0.38198063
2.8087616 0.92418981 0.1004711
0.084883317 0.2813113 0.3105185
1.6567436 0.26462924 0.067844316
0.35710481 0.34826016 0.22495073
2.7589383 0.35588339 0.45803368
0.66673946 0.086314954 0.45208463
1.1242131 0.32003316 0.4494136
2.7579362 0.89461148 0.23067515
1.3443859 0.24460047 0.38601148
0.19633129 0.23402773 0.031825848
2.4882152 0.17028156 0.49392074
0.091041714 0.198576 0.1345764
1.9541527 0.75082386 0.26689103
2.3612187 0.8698588 0.44102111
0.71092296 0.78950489 0.1189628
0.45912504 0.011751374 0.16212028
0.17163275 0.38648909 0.32213688
2.8681145 0.30580118 0.26944262
1.2521652 0.75392979 0.39174286
0.56823421 0.81937355 0.0087567195
0.75918925 0.64877862 0.093897499
0.72271377 0.67912585 0.19318549
1.5301722 0.33051008 0.068597436
0.13151833 0.11758294 0.003526835
2.7776451 0.35455725 0.39827928
0.49142182 0.50759894 0.40415496
1.4641435 0.56480986 0.097399518
0.39696467 0.52084798 0.25030011
2.0136204 0.93823642 0.12726501
1.3640776 0.12764779 0.036951788
1.4166179 0.38071087 0.36134109
1.9800029 0.62161547 0.20090401
0.13911583 0.13167286 0.36615905
0.55070043 0.17551231 0.42495051
0.57186145 0.10139398 0.10222913
2.9615371 0.26520124 0.35602859
2.386467 0.75324905 0.13843352
2.9708641 0.88557065 0.3988575
1.4726646 0.55677742 0.36797571
2.2362547 0.011469936 0.43179959
2.4579654 0.48367587 0.12215503
1.6260118 0.14367682 0.43296278
2.8314359 0.19004877 0.4987992
2.0283902 0.37361556 0.086555347
1.5780933 0.56423604 0.13725233
2.191468 0.55141509 0.26985297
1.3276397 0.34690407 0.14647749
2.1582408 0.33719209 0.089262813
1.5513859 0.8280803 0.36765152
0.75924015 0.57349849 0.3733865
0.35003769 0.3928203 0.11522444
1.0829679 0.93482429 0.18706284
0.68074441 0.87863624 0.28208724
0.67353958 0.5547663 0.46889502
1.1928717 0.080797426 0.25101304
2.0163858 0.81128681 0.026720583
0.63550341 0.25383335 0.20017262
1.5143684 0.97324699 0.36876866
2.0499454 0.49037561 0.28280881
1.2558545 0.74345565 0.069558054
0.49617344 0.8601349 0.2659682
1.18752 0.22112417 0.23338035
2.3098972 0.448039 0.17269847
1.0024205 0.67255217 0.45008162
0.81579065 0.070176087 0.49048033
2.3218689 0.74230462 0.39612374
2.4821923 0.95413911 0.023040423
0.68322808 0.45892859 0.0096639153
2.8958399 0.1422437 0.25485173
1.5926927 0.56086183 0.12657955
2.010041 0.72625297 0.056647003
0.60585034 0.12209301 0.16720909
2.0061324 0.89205873 0.39122859
0.042323191 0.2261989 0.22750469
2.7428129 0.4981291 0.26259273
2.6856949 0.2720854 0.13374504
2.0624375 0.099482857 0.11081461
2.20068 0.32722554 0.34027889
2.2586634 0.29250553 0.41140077
0.78777385 0.82340312 0.19183168
1.5472512 0.49341685 0.054958172
1.8871332 0.69536698 0.11600468
2.8903878 0.36407775 0.062034041
2.2377594 0.37818548 0.1751335
0.60278738 0.29245648 0.42419803
2.1783438 0.18768814 0.060240746
2.980814 0.87516731 0.10998218
0.64570165 0.60872734 0.27359495
2.6873751 0.36161515 0.41984773
2.1557796 0.62420642 0.33154929
0.3067697 0.13995683 0.07825771
0.63651872 0.76900125 0.42594117
1.3325468 0.73246384 0.10798006
1.704751 0.47838357 0.2970728
2.7555521 0.67931271 0.44330102
2.3007402 0.40542725 0.037145101
2.6621847 0.39903191 0.47472876
0.32207778 0.6142658 0.2790924
1.9636475 0.51005751 0.45989999
1.4827337 0.2286507 0.2720032
0.47202951 0.33090729 0.34198162
0.94157577 0.54308021 0.22648223
0.49722284 0.98726249 0.092714138
1.1451032 0.55551279 0.33190593
2.9275398 0.47403014 0.17156227
2.5873461 0.24094357 0.37427589
2.8102167 0.12833849 0.073791862
2.6585891 0.23569775 0.38092476
1.3331436 0.89024693 0.13595352
1.0925435 0.3844915 0.25027886
2.7245626 0.54183465 0.4157325
1.7764524 0.85569322 0.18727259
0.13534576 0.021434193 0.18090382
0.6916306 0.40313524 0.45866024
2.6830661 0.37898189 0.1956753
0.71243978 0.24143058 0.31614709
2.9580951 0.17816947 0.38031632
0.4008463 0.064365871 0.49816519
2.6863949 0.5087471 0.44328865
0.50211591 0.87292826 0.13553439
2.0037892 0.78111583 0.40645173
1.4981841 0.37326661 0.33429834
2.6218197 0.41838187 0.34501544
0.70724267 0.64892542 0.046583068
0.45920408 0.54328078 0.23607402
1.633256 0.78076071 0.35678929
0.53013843 0.76679242 0.44587404
2.8120363 0.90040785 0.47805697
2.8010275 0.79587281 0.23243052
2.4607594 0.96324474 0.16889465
0.27396575 0.63117445 0.059452567
2.712676 0.13056917 0.24608588
1.7184662 0.0045090774 0.45527682
0.78855878 0.24025664 0.2797395
1.0680572 0.39332467 0.051379897
2.4845014 0.93774331 0.44176024
1.6252371 0.11445611 0.32515645
1.3004813 0.051801562 0.27536038
1.1688232 0.98547739 0.17329675
2.5634065 0.80573052 0.15491913
0.5767743 0.89705247 0.47050637
0.93348974 0.80127782 0.035790946
2.4100051 0.37409985 0.038045485
2.1416659 0.63695276 0.1581738
0.82010293 0.99297184 0.35483614
1.1283823 0.82113892 0.32370779
0.77894378 0.36288464 0.38093585
2.7298825 0.79637843 0.40683663
1.3820447 0.18598618 0.39957532
2.4218252 0.040454976 0.30244058
0.35133994 0.23271309 0.25096682
0.1743781 0.54387635 0.15160573
0.38912377 0.34721133 0.33865565
0.61739665 0.061099939 0.15713203
1.5664395 0.33446759 0.15361796
0.69545633 0.71059501 0.06418743
2.6377032 0.97024292 0.24562974
1.9233181 0.88020378 0.14381896
1.3643379 0.34088531 0.23681206
0.76178992 0.14816035 0.25703955
2.5764334 0.26527366 0.37339607
1.0822345 0.32339969 0.14533424
1.9918687 0.45310763 0.31893989
1.0238026 0.65890652 0.34948987
1.9665948 0.18105301 0.016723663
2.8883026 0.41287181 0.37202117
0.27342716 0.29210618 0.35714266
1.7472056 0.93321222 0.29724452
2.6101193 0.38799155 0.46768719
1.0309917 0.64192152 0.041767351
2.5732291 0.50073272 0.17440419
1.8136054 0.86147755 0.33610404
2.685611 0.52543378 0.062657841
1.5992503 0.86670136 0.39211109
0.69618958 0.52223295 0.48263761
0.79653156 0.48500049 0.1890735
0.028658606 0.57614285 0.33512661
2.1715145 0.15854476 0.30173272
0.95498163 0.02858457 0.49572849
0.7611047 0.37224847 0.31668928
1.0117089 0.22999147 0.067055628
2.0581338 0.8345266 0.49779439
1.0747581 0.72973025 0.26051131
1.4507052 0.26281372 0.19386196
0.80337173 0.49487689 0.45497844
0.69919735 0.76038742 0.19747868
1.8336384 0.76994032 0.48555014
0.84439802 0.49377847 0.064822502
2.6547942 0.81210566 0.079114787
2.6291652 0.065807238 0.26523903
1.5293009 0.40304351 0.38023478
1.9316347 0.089088142 0.29749808
1.9184011 0.44734085 0.1623632
0.48146883 0.93090922 0.29377005
1.6446406 0.1986998 0.041208509
1.3745112 0.43176559 0.42140222
2.5593834 0.04297841 0.30637237
2.4726841 0.32444441 0.0532616
2.8616192 0.20937584 0.45931444
0.33630785 0.085764274 0.49221805
1.927742 0.59553123 0.1937398
1.2091506 0.23940948 0.23828387
2.994139 0.87887651 0.4619543
0.96831828 0.039366107 0.4274089
2.7309387 0.58757967 0.026758816
2.9781897 0.04575007 0.24264161
2.506603 0.89887786 0.26413083
1.3448373 0.72310591 0.42635304
1.6644069 0.67697895 0.03104095
1.4202935 0.78908157 0.073923089
1.3736018 0.43166223 0.37168872
2.5360408 0.83471245 0.49139345
0.96574396 0.83275878 0.4308317
0.73746973 0.15553156 0.45051473
0.30192322 0.065844424 0.24430457
0.4624761 0.058574323 0.26717961
1.9183258 0.89410865 0.21661854
0.50311071 0.34238777 0.078171484
0.061228868 0.89719003 0.41666096
0.24747457 0.37062123 0.31120175
0.6910131 0.82848853 0.027032856
2.9211454 0.6738354 0.44438908
2.8695061 0.99575007 0.36076847
2.4544961 0.24157329 0.43853426
2.1575847 0.34221438 0.47145647
0.62341207 0.49637306 0.00074362103
2.2264898 0.13581501 0.44779795
0.52620095 0.30351856 0.11899184
0.9952299 0.32392821 0.067586869
0.49519563 0.40641972 0.2528975
2.362406 0.63675743 0.16714174
2.5246031 0.61047256 0.0040594405
2.1909378 0.56697452 0.0019344634
1.3555485 0.38513994 0.12272111
0.98675394 0.10433482 0.29382831
0.81549269 0.31213886 0.04201483
0.81995445 0.054302089 0.10992233
0.50674218 0.22970241 0.26168162
1.2206932 0.56144571 0.42364573
1.6262144 0.72651094 0.12685558
0.14359936 0.51397961 0.4452343
1.1464498 0.35551399 0.25047055
1.1708064 0.085826546 0.033957824
1.1824132 0.53767604 0.2265278
1.9187399 0.86659402 0.2786952
0.68170965 0.13842493 0.43476462
0.93379861 0.41174307 0.46191567
1.5933326 0.58065712 0.076766871
0.16342236 0.98755485 0.35748973
2.7052968 0.52962637 0.22074519
0.46643019 0.57749277 0.47773498
0.13783592 0.95964271 0.15549199
1.6406592 0.34991154 0.19840527
1.8444062 0.74404931 0.46724328
0.20357294 0.38362926 0.40054029
1.8757441 0.61086583 0.46975276
1.4843318 0.92213202 0.1756243
1.2558258 0.4532429 0.46595287
1.716427 0.50771701 0.4597303
0.86136538 0.40948257 0.22454347
2.1858366 0.56495929 0.013289873
2.0522463 0.61090463 0.49311125
2.9851983 0.15779102 0.16806702
1.1756299 0.77259308 0.040091664
0.97908956 0.84045076 0.23190629
0.38233128 0.46569878 0.037339196
0.20084783 0.96047604 0.49840522
1.2545936 0.37908465 0.22502665
1.0503107 0.95122701 0.47888517
0.80869251 0.23834878 0.18362644
2.1559534 0.96696097 0.46610609
2.2356925 0.65104306 0.2715584
2.19436 0.64610916 0.35045391
0.20276214 0.037985783 0.23675045
0.44331211 0.36434898 0.15697584
1.8347498 0.49179274 0.38982522
2.058785 0.55874199 0.37006325
2.0492163 0.97693986 0.059605584
0.39937621 0.32704347 0.035219084
0.27268717 0.59660763 0.15439348
1.3744458 0.31525877 0.13787395
1.1710824 0.060489625 0.46339548
2.8004329 0.79194295 0.28645006
1.9031563 0.85953033 0.30544296
0.32365906 0.0073010572 0.48761743
1.265514 0.61888433 0.2335138
0.60446537 0.30514604 0.012884804
2.8248448 0.98821813 0.0013547412
0.18247841 0.12134353 0.16487648
0.39379293 0.21223925 0.4631803
1.3201538 0.67038786 0.12080967
2.1473975 0.060748681 0.15105449
1.9277704 0.99422628 0.047025967
0.64647067 0.62861174 0.47679114
2.4791284 0.73649806 0.48044166
2.4048331 0.15833609 0.28988385
0.80591583 0.35982457 0.44245687
0.88322461 0.30143952 0.43656594
0.89135307 0.36226568 0.49723768
1.8806119 0.49352998 0.10335732
1.6596936 0.93358123 0.43855125
2.3845518 0.64938039 0.4689256
0.29087856 0.29197049 0.46603873
0.57303435 0.50746071 0.28034461
0.43378121 0.33383685 0.14859365
0.31643122 0.13544786 0.22776169
2.0557344 0.40408647 0.40767395
1.7104754 0.69849467 0.058393732
1.3298711 0.99561238 0.23952655
1.3132973 0.62248302 0.48629156
1.9334412 0.17571422 0.45308217
1.5647486 0.97056478 0.27777234
1.3783022 0.067524292 0.42375758
1.1745347 0.25853574 0.17748795
2.8566024 0.40312949 0.34440637
0.74816424 0.50860655 0.4121303
2.1147344 0.19385134 0.11417354
1.5607781 0.76400983 0.46342087
1.9111406 0.20730017 0.46122706
0.34829992 0.6450659 0.27246857
0.26604921 0.28954628 0.36032566
2.9845421 0.81112921 0.34560806
1.6511762 0.27056327 0.37937021
1.1937219 0.66207486 0.00863807
2.2586496 0.61427563 0.21020281
1.3250879 0.86366373 0.46450609
0.79786968 0.56857514 0.061431754
1.482911 0.088834547 0.44343668
1.2634362 0.7258814 0.047086757
1.0307986 0.84198135 0.36961973
2.6656098 0.93066442 0.01439286
1.8275639 0.92551184 0.41995746
0.90121222 0.4759039 0.055239093
0.17743337 0.87381119 0.38627651
0.2292618 0.62669438 0.19341435
1.4904786 0.068390325 0.1252462
1.2775152 0.33434689 0.40953377
1.6461058 0.82865053 0.45395103
1.3067257 0.24979594 0.31689173
1.5892463 0.59339547 0.23788242
0.80696458 0.48193207 0.20321465
0.89332169 0.091120034 0.16597055
0.41306645 0.39152411 0.4039225
0.74450099 0.45066854 0.34082809
0.062160123 0.52708918 0.15417528
1.2226461 0.023915369 0.18837045
1.9741234 0.44975376 0.35554388
1.4313259 0.9984557 0.26986918
1.1550322 0.43403092 0.39476714
0.056382678 0.96377969 0.19146486
1.4836773 0.23276787 0.43243089
2.702965 0.53054178 0.4779909
0.6987884 0.66823059 0.17375296
0.12232347 0.91639757 0.39908722
2.1672921 0.93711764 0.16263181
0.092343777 0.34466633 0.17458948
1.2225665 0.0027074437 0.39946637
0.35582983 0.47981608 0.39869422
1.9750448 0.86482686 0.11570968
1.3436476 0.88362104 0.097599514
2.4924366 0.37818015 0.21398345
2.0870221 0.27916852 0.47925434
1.9549676 0.51209795 0.31336963
2.9974854 0.55287248 0.27156842
2.3920088 0.27530316 0.24012722
0.36779958 0.30608442 0.41246039
1.4153365 0.7136066 0.4138141
0.8121348 0.8322165 0.15372215
0.20430006 0.49056479 0.086135574
0.89855814 0.93844736 0.0279461
1.4841552 0.76925957 0.21703617
2.7680559 0.46493363 0.35662043
2.6435819 0.11658949 0.11266942
1.5237995 0.11575127 0.38910565
0.15321003 0.91308749 0.026757233
1.5939734 0.035687372 0.17979944
1.0687357 0.5074662 0.036602732
0.55162036 0.7781778 0.45271099
1.4739532 0.84627783 0.19799338
1.9907668 0.14579721 0.16721706
2.1584432 0.64051563 0.051846847
0.46066034 0.56320089 0.28431368
2.6003828 0.44439486 0.34260842
0.27639937 0.95232803 0.40048406
2.6110332 0.0033980594 0.3570278
2.7715766 0.53472251 0.37487149
0.85037333 0.89096773 0.12860459
1.0699897 0.074841179 0.017693501
0.78625566 0.56615895 0.44083241
1.974216 0.22974785 0.013731017
2.9775183 0.94922894 0.33398882
0.2885994 0.10278241 0.11558927
1.9944814 0.96957672 0.3377867
1.0501319 0.061709817 0.31395072
0.45303616 0.93205422 0.31564975
2.5952029 0.8559131 0.083011009
1.844432 0.1393709 0.028494876
2.6160595 0.49603415 0.065915465
2.7222204 0.75811934 0.34899494
2.3672149 0.41619134 0.46386886
2.4496012 0.40869746 0.43848336
1.453534 0.50489724 0.48987454
2.1470697 0.16972439 0.4746629
1.1737899 0.51976836 0.0055178022
0.057494234 0.67078036 0.47154492
1.9513928 0.53584802 0.39950147
2.4494588 0.1506587 0.46918693
2.6204281 0.022678539 0.217204
0.015920881 0.93008536 0.096263677
2.1098905 0.71915704 0.30435935
1.8931037 0.53569078 0.0087080821
1.5240037 0.020202124 0.26115671
1.463251 0.735892 0.34601891
1.3112284 0.1271553 0.10590307
1.3443352 0.14632006 0.44129327
1.1736047 0.79678434 0.20921728
0.57061362 0.61327058 0.28454664
0.38573524 0.48674661 0.29588589
1.6889592 0.49205357 0.2609286
2.2665412 0.19535041 0.12050713
1.0926975 0.82638496 0.38835251
1.144946 0.33438623 0.39845356
2.7118862 0.82213658 0.26639959
1.7879996 0.2592127 0.32997724
2.423418 0.70732445 0.40313727
2.0711775 0.098526038 0.30152944
0.32648131 0.28873059 0.10816472
2.033761 0.41730899 0.35153803
0.80907655 0.98029542 0.097564816
2.3746481 0.73580921 0.19524002
0.097690865 0.10004169 0.10843251
2.4278059 0.48169035 0.27562562
1.8185273 0.38565239 0.18669392
0.41692489 0.98165226 0.31630027
2.3967884 0.78945827 0.16996251
1.815612 0.47985083 0.21922553
0.62478846 0.58867794 0.36359081
1.2737768 0.26659828 0.072245315
0.38300496 0.53629047 0.062393025
0.96839386 0.32783982 0.43029761
2.1398339 0.36040345 0.48031846
2.7904291 0.1696721 0.22116363
1.4441828 0.77584791 0.41398984
2.5643463 0.91482288 0.40481597
1.462148 0.71375233 0.29954511
2.4819229 0.31895629 0.039470527
0.79727608 0.52721912 0.33380949
2.978821 0.95181137 0.46710864
0.41229287 0.079479709 0.23525386
0.78665102 0.40227765 0.39917377
0.36843675 0.11555564 0.079375505
0.25034755 0.045698643 0.16421156
1.5773294 0.52709293 0.052135501
1.0612684 0.38187501 0.0095469346
0.49016428 0.86925763 0.3664231
2.2874351 0.69656533 0.025901236
2.5242581 0.96232402 0.28951079
1.5271151 0.95526433 0.2654165
1.3297669 0.092695288 0.30515635
2.7412901 0.35491228 0.0062951734
2.1363328 0.47772455 0.064072996
2.6125858 0.56117374 0.086922318
0.59785503 0.086950183 0.35046875
0.91066808 0.44070631 0.04140627
0.96794969 0.60409439 0.47603509
0.1664882 0.36657274 0.32431775
0.32189563 0.20799212 0.30547976
2.0589604 0.71703047 0.28311193
0.65145934 0.16028611 0.32945958
2.4823973 0.074049458 0.0069157137
2.5201685 0.78616035 0.24577798
2.9046063 0.65702224 0.026364848
0.42614034 0.85630727 0.069839939
2.5289528 0.15986329 0.29019308
2.7773905 0.48251319 0.092240296
2.6336012 0.53800923 0.27552667
1.5795076 0.64530778 0.37952274
0.41238615 0.33162794 0.23803797
2.1110578 0.54878104 0.31818104
1.087815 0.37624687 0.35520577
1.1293094 0.21630302 0.24828593
2.6039772 0.18450516 0.076797068
2.7621663 0.32655194 0.0049507059
0.181206 0.16953625 0.084882356
1.9223646 0.095333099 0.32613894
2.4758065 0.97320014 0.095143571
1.1289665 0.49970266 0.41779748
0.40610281 0.63716471 0.083611436
1.8343307 0.34085062 0.35800195
0.74341685 0.70345563 0.046125386
2.8746514 0.079892114 0.15427689
1.364367 0.94788456 0.24652947
1.8251494 0.86860669 0.40980545
1.8548537 0.92900866 0.49457356
2.3641479 0.56979686 0.042240117
1.3209815 0.39506564 0.028840186
1.891843 0.77138776 0.27869153
1.3986278 0.90675539 0.097273886
1.9002963 0.51819891 0.26769921
1.0483081 0.76600456 0.11942703
1.3250605 0.72422171 0.15937309
2.2507217 0.17901072 0.13331535
0.72989869 0.78739387 0.06761869
0.18873134 0.40567845 0.032123022
0.15617277 0.19372773 0.31702146
0.40961346 0.6340549 0.014554276
0.5826546 0.26466921 0.40024817
2.2548037 0.73087847 0.35362586
2.8384471 0.36431059 0.11272532
1.4446423 0.71374661 0.4957276
2.1612043 0.15543343 0.35783845
0.11744291 0.90567404 0.44734383
0.91733503 0.1489736 0.34104076
1.3230472 0.21188404 0.043879986
1.5157853 0.26394162 0.14074385
0.41791403 0.40047947 0.4577713
0.50523967 0.59469765 0.090105906
2.9067287 0.3462989 0.45554513
2.0284839 0.29244792 0.13770042
2.7048357 0.77399534 0.49457374
2.6792014 0.49439681 0.072290458
1.8262321 0.53354442 0.025127472
1.510295 0.83932281 0.09961427
0.5565396 0.28033853 0.20555629
0.81981951 0.7856003 0.3375271
1.6642826 0.92490494 0.037766829
1.4109104 0.093318187 0.33511564
1.9515458 0.062227745 0.0082651004
1.6848166 0.73838902 0.15448906
2.5110192 0.64000094 0.041486721
2.4784617 0.53306806 0.28868511
2.9122043 0.14181209 0.055457346
0.062969193 0.64524376 0.47511873
0.66065478 0.83075696 0.115288
1.8939925 0.10403012 0.0080881417
0.91915518 0.65879101 0.47054061
1.1457561 0.12909444 0.017199714
0.15645009 0.77960974 0.048313588
0.2060407 0.34121525 0.4175081
1.132975 0.17822166 0.23750855
1.3818953 0.0043755397 0.0040425831
0.1140061 0.97511035 0.074948624
0.44675016 0.99610007 0.39757052
0.29746261 0.21631832 0.31294897
0.98919058 0.84764916 0.36496404
1.0377195 0.15403424 0.19435953
0.86096317 0.53595299 0.25890675
0.96416146 0.588103 0.14871161
1.254043 0.65678322 0.31931925
0.75909156 0.034441575 0.40843007
2.1841428 0.49507338 0.41061783
2.2083983 0.53307539 0.398173
2.6580901 0.68199211 0.39622304
2.0435131 0.78114635 0.0043821954
0.92120707 0.11087652 0.42820677
0.1109913 0.456783 0.0052239075
1.2771485 0.74377072 0.27320039
2.8305891 0.06515789 0.067251891
0.72285861 0.48317221 0.3956435
2.6387739 0.73620272 0.4128643
2.0893545 0.46425036 0.16040097
1.5530615 0.20038314 0.42693868
0.94209945 0.086413197 0.26793474
0.31943762 0.76758426 0.1585079
0.34573081 0.074653275 0.21394615
2.9149716 0.11165038 0.44233766
2.9463151 0.53736651 0.31422302
1.5855173 0.4808962 0.34680197
1.9890287 0.72184908 0.088388078
1.3628896 0.60144043 0.45648944
0.84007543 0.29789189 0.18861462
1.8024813 0.815579 0.2888062
1.3641133 0.12961218 0.3320128
2.9717216 0.23609139 0.21580492
0.92276907 0.35133499 0.25313157
2.2064459 0.32299218 0.30895674
1.860472 0.30509716 0.077640012
0.74581009 0.83360291 0.31808811
2.826622 0.49661246 0.17901264
0.35695034 0.95090902 0.47973284
0.09588699 0.23093417 0.12867877
1.2275747 0.83176124 0.036468286
2.9604118 0.2864657 0.10127438
1.9524885 0.27703959 0.21932007
0.24731806 0.5846293 0.39498755
1.7661073 0.32011127 0.056483649
0.61984783 0.94026864 0.20903222
1.0856879 0.18887198 0.12583369
2.9942164 0.13107927 0.37413993
1.0682924 0.25006273 0.34959444
0.94668931 0.28202507 0.46506152
1.7187619 0.69121665 0.38094217
1.9375716 0.67802054 0.024175001
2.545218 0.32885009 0.1626948
0.86113834 0.41128942 0.45500943
0.23106375 0.99999189 0.11506508
0.56996566 0.20660783 0.085199386
1.824159 0.5685038 0.17963538
2.5791612 0.56657594 0.24517502
1.8240007 0.9226734 0.37020639
0.92156732 0.23823653 0.011218904
0.71193647 0.81115717 0.3568272
2.9975893 0.45701441 0.1958375
0.1426394 0.3054204 0.36026254
1.1188082 0.59246653 0.065907255
0.84886485 0.66948777 0.065903202
1.5392554 0.85947633 0.16920713
2.0504518 0.46752933 0.45345902
0.12826391 0.32724971 0.23674701
1.599314 0.93524992 0.19808371
0.82055223 0.24243902 0.31720197
0.88786566 0.47975117 0.22278057
0.028828934 0.47894764 0.45128778
1.2038538 0.52649409 0.10399798
0.36542913 0.89943016 0.40023124
0.76087266 0.1823851 0.23497513
1.1562918 0.69547021 0.16471328
2.1715345 0.37895411 0.39847794
1.8922887 0.42170873 0.062102787
0.31277078 0.95481342 0.029727746
1.501273 0.22833082 0.15094726
0.40448496 0.52428603 0.39082286
1.7411684 0.53389567 0.13029666
1.4488951 0.93518031 0.39354372
2.0728829 0.05699002 0.3432588
1.4742703 0.31061423 0.43445134
2.8841212 0.69604486 0.28218645
0.87240076 0.41988972 0.4716635
0.26326841 0.050652634 0.18251789
0.63588512 0.15490957 0.15992458
0.8142516 0.65533394 0.27408999
1.7199352 0.79016227 0.036233012
1.0648723 0.37055171 0.30318084
1.8466522 0.8535167 0.270771
1.2079145 0.5444777 0.29926601
0.26746726 0.035901148 0.45457312
2.8741753 0.99727488 0.30259556
1.5672941 0.28807512 0.012540427
1.3972752 0.37583125 0.037866745
2.4923825 0.58779293 0.11532152
0.45193005 0.85921013 0.44298849
2.0964701 0.43252188 0.33806962
2.313868 0.78747928 0.023345454
1.1329532 0.40303001 0.45010382
2.7575793 0.80566818 0.22234266
1.5531753 0.89482397 0.24029323
1.2806141 0.85288239 0.23893066
0.096187562 0.37531379 0.38296822
0.17143013 0.8410722 0.070883833
0.39863059 0.67186636 0.36478031
1.0905597 0.82250971 0.2943854
0.74849063 0.52133304 0.010646333
2.7769082 0.29262242 0.40438598
2.916981 0.67027348 0.10590099
2.6176038 0.58946657 0.0087350756
0.9516598 0.1071917 0.45614704
2.3934193 0.5340631 0.38258824
0.82700318 0.56612563 0.070245132
0.12481244 0.62326896 0.49078122
0.55011547 0.75614583 0.3267144
2.7387974 0.11966576 0.23796926
1.5051097 0.36916265 0.4986358
1.5689877 0.29479873 0.14494699
0.99530351 0.26712573 0.48008373
1.6307094 0.13966036 0.27481702
1.6831199 0.4568803 0.32841286
1.4200022 0.25468671 0.095444418
0.71553165 0.53035444 0.37850723
1.1370025 0.5719586 0.19014171
1.0816898 0.75533038 0.068214633
0.04197621 0.66826284 0.12804751
1.4697918 0.16996606 0.31262884
1.4616065 0.69296193 0.4600282
2.3312886 0.024729792 0.093591072
2.2117908 0.56829959 0.16342124
0.8606931 0.12933956 0.39186141
2.8311703 0.60267365 0.019204754
0.40383685 0.84118414 0.28438199
2.6748803 0.22018498 0.070361264
0.81573045 0.58074826 0.44802645
1.2250183 0.59474033 0.28215787
1.9933033 0.084670894 0.36714092
0.86907631 0.57187307 0.21362188
0.62924558 0.34896922 0.22598678
1.190792 0.086232856 0.010136578
2.1713195 0.37313056 0.074806362
1.5224879 0.316854 0.37614316
1.6377164 0.45146626 0.29673526
0.34400827 0.34309298 0.40682775
0.76617581 0.61500311 0.19720186
0.45433459 0.023342544 0.49457201
2.1472819 0.68777698 0.036907464
1.3501273 0.97746909 0.322844
2.6318586 0.18721762 0.49732861
0.98777926 0.58414829 0.040445026
1.0485986 0.30792147 0.22701029
1.4974369 0.81541741 0.38543731
0.75429589 0.36132288 0.11117043
2.5347073 0.47599232 0.28271693
1.9756739 0.73138428 0.090218492
0.15888506 0.88282913 0.10188977
0.12631714 0.59858972 0.44577825
0.34776193 0.048632167 0.43451279
2.2848258 0.92591834 0.028121617
2.2687974 0.25517809 0.32019576
2.5114677 0.604711 0.4741565
0.87352943 0.10385662 0.3818652
0.18615323 0.35528859 0.062526643
0.85317582 0.20019107 0.3005228
2.5494773 0.85874903 0.16621493
0.090788342 0.91171074 0.10762949
0.70212692 0.95381641 0.40692437
0.37679648 0.069737069 0.43124044
2.9838734 0.83134568 0.39419961
0.15260303 0.58761156 0.021788672
2.0737777 0.4247674 0.32414418
1.9187165 0.71594393 0.3760725
1.2099078 0.77799499 0.053716782
1.5850676 0.062386923 0.15381232
0.38820443 0.91221273 0.083186835
1.385494 0.9424755 0.03904219
2.031271 0.17651781 0.015950404
1.4728171 0.30211663 0.050818942
1.0602597 0.29674107 0.46649179
0.42545739 0.34760875 0.26029757
0.55618942 0.038867958 0.47268125
2.5010545 0.67844015 0.33065322
1.7574893 0.081742719 0.21965072
2.0797901 0.6100986 0.25084418
0.0026639812 0.73950005 0.20695053
0.50178498 0.20133139 0.17818828
0.73603809 0.87842166 0.26644719
0.83174056 0.36936072 0.4175055
1.1366541 0.72278059 0.065876044
0.93560493 0.8645997 0.23968042
2.4973903 0.049996208 0.25911441
2.333478 0.88368106 0.098334469
1.3173972 0.46951082 0.13920583
2.6353016 0.16277419 0.44425511
1.1403666 0.16366218 0.31400517
2.3820698 0.33092383 0.41467085
0.45119944 0.57626987 0.35388169
2.0498827 0.8535167 0.038562041
1.5549157 0.23240145 0.39995235
1.9501719 0.54426974 0.3322522
0.38825446 0.37673318 0.3572503
1.9429408 0.15455917 0.29909083
2.5329478 0.59369159 0.03384624
0.36818269 0.47212541 0.11523333
0.03371343 0.8522476 0.19706441
1.9177444 0.64627087 0.36252633
1.4057695 0.79667068 0.15066127
0.52905953 0.47996485 0.077419639
0.76043183 0.99827009 0.19362037
0.16014585 0.64832735 0.46575525
2.1536591 0.77774554 0.15412185
1.297161 0.42539248 0.23140143
0.091705963 0.2697084 0.02824722
0.29478341 0.39243597 0.26430994
0.9861834 0.40367377 0.19043373
2.16857 0.042921882 0.013569155
1.3437279 0.51151168 0.41190448
2.2476957 0.68786484 0.15188693
2.7122135 0.94134212 0.15102196
0.87393564 0.99472409 0.47518563
0.6684671 0.71261048 0.36405841
1.5931982 0.14499745 0.076754645
2.9816067 0.17556611 0.21160884
0.15109009 0.27382725 0.40782681
1.7369497 0.60255504 0.10966371
2.8795521 0.32541168 0.13112465
2.9609671 0.77332103 0.38688049
2.4323938 0.52255291 0.23081292
0.34371543 0.42662403 0.20148399
1.2498472 0.71793592 0.19884603
1.100961 0.94075829 0.055151261
0.28531143 0.47182435 0.12764999
0.7458393 0.46569327 0.21543305
2.0154924 0.51605666 0.35234666
1.4624534 0.095039859 0.15362419
2.1204355 0.054890539 0.31633005
2.9071834 0.041879527 0.20299055
2.2284663 0.85267752 0.46426699
0.61334395 0.96724927 0.177579
1.8222479 0.38386503 0.036546968
0.015324071 0.75085199 0.0069261133
0.34623164 0.84595585 0.24283829
1.1121316 0.094568923 0.47568494
2.4047298 0.76639974 0.23371325
1.5188098 0.25388414 0.28123319
2.4405549 0.96069598 0.30867845
1.3385352 0.92975718 0.32961822
2.5564785 0.67257929 0.25595698
2.3420804 0.87702727 0.23958161
0.40755436 0.48444322 0.43151411
0.62683618 0.48955125 0.30694014
0.66839284 0.60496181 0.22991803
2.1254225 0.9756723 0.27720249
1.9795321 0.77724892 0.16040236
0.38181168 0.28351888 0.28734443
2.0692108 0.097037181 0.26769245
0.92128146 0.54321557 0.23257101
2.8989906 0.39537504 0.06886065
1.4347326 0.17606848 0.0073742839
2.8722222 0.31191993 0.2495959
2.461307 0.52086532 0.4943715
1.3029478 0.74366295 0.29685241
2.682456 0.45213714 0.28468856
1.3456709 0.11198119 0.17331302
2.308085 0.23925175 0.31507245
1.0321517 0.92898864 0.36359105
2.6383064 0.23608248 0.13519883
1.0337323 0.20241272 0.33288637
1.4468963 0.68065691 0.42092061
1.4911419 0.63806432 0.076880559
2.9887173 0.45849994 0.33731323
2.9549465 0.89281583 0.2091447
1.7360609 0.78696781 0.43521327
0.44419226 0.2355248 0.49120384
1.4840704 0.0048865001 0.11082973
0.37450516 0.34893706 0.075324059
2.5560515 0.22837248 0.19336529
0.36724451 0.57294995 0.29457167
2.3645627 0.055248678 0.13490011
1.8900863 0.55229598 0.45393226
2.3513696 0.54853511 0.18318222
1.3752489 0.53351724 0.12959015
2.6301172 0.1122042 0.023074066
2.2413967 0.26026827 0.14083648
2.1886199 0.75495839 0.14327972
2.8535981 0.87979347 0.31774825
0.3055425 0.73181063 0.43193448
1.4657342 0.85422546 0.21840945
0.23316421 0.64241302 0.24603379
1.0425649 0.27244177 0.02218179
0.7661584 0.056231655 0.29644933
1.8652518 0.51464796 0.063207969
2.6427927 0.39135367 0.11931007
2.7812371 0.13848591 0.2494442
0.62625593 0.86802584 0.12692341
1.4859343 0.81922525 0.066820152
0.39242372 0.92107272 0.43272546
2.9840307 0.4096508 0.35983822
1.2944874 0.48737222 0.18104473
2.77069 0.83489382 0.31726563
2.9037809 0.090279959 0.34538144
1.6824769 0.71203053 0.10270543
2.0617247 0.59296143 0.29838228
2.777585 0.52004045 0.36762524
1.2742504 0.72879243 0.30163813
2.0357909 0.22410384 0.21125075
2.4367118 0.35491174 0.17178711
2.0330646 0.34958863 0.37661251
1.1920938 0.78108442 0.12029862
2.2783623 0.70464778 0.037745543
1.1819559 0.6725747 0.082885526
0.25424454 0.23340034 0.4389008
0.87047708 0.9206419 0.23538151
2.6607707 0.84650362 0.49540174
1.8665221 0.27125371 0.35979795
0.67635089 0.94985068 0.47184989
1.9438554 0.76208788 0.14930576
2.9745781 0.43977609 0.32410008
2.2342532 0.83714068 0.21464227
2.9560449 0.59659475 0.066966161
0.18251824 0.99058008 0.40325353
0.67983139 0.075328231 0.019953685
0.31323615 0.36548728 0.48027465
1.7255253 0.25241083 0.40352643
1.6979357 0.87458485 0.039153289
0.85672355 0.10003516 0.014078615
0.68782282 0.74798697 0.39512256
1.5836574 0.73951298 0.11501061
0.52825779 0.48426408 0.033580963
1.8161114 0.46961239 0.33187833
2.2179084 0.53045183 0.32716838
1.6374295 0.75706226 0.36483249
1.7571516 0.86147434 0.047576126
1.6387994 0.43664941 0.17378154
1.0599581 0.0026279958 0.11107398
1.2948778 0.28820249 0.16109155
1.3793495 0.5174768 0.035085037
0.75008488 0.045362577 0.40484154
1.4401486 0.22144851 0.14697357
1.6416343 0.826819 0.38177976
0.63290441 0.56612182 0.14700568
2.5959146 0.11193166 0.02553682
1.7849096 0.69764888 0.45627397
2.0703664 0.24391535 0.17459869
0.11305562 0.59723473 0.17591269
0.77949947 0.028860638 0.32001394
1.7460488 0.4886438 0.078752339
1.9565591 0.73867208 0.10143363
1.3856082 0.2187216 0.21215788
2.2674496 0.76593304 0.12556739
1.5581284 0.97690117 0.40862828
2.4401624 0.84220606 0.46459413
2.5933833 0.4371759 0.31341857
2.3310273 0.12729801 0.43537623
0.3786194 0.16498321 0.23399359
1.4340956 0.42481637 0.24842392
0.35417923 0.0068326415 0.49274582
0.82669324 0.65901899 0.36208186
1.435295 0.12088839 0.47144267
2.7082424 0.87670493 0.35440919
0.46164662 0.39608106 0.34285977
2.9134164 0.20946851 0.26396278
2.7009811 0.07392963 0.48255074
1.5814925 0.85093874 0.046199743
1.1937499 0.9771452 0.12869135
2.5977116 0.45517704 0.34109953
1.0882549 0.57323676 0.34451586
1.0447298 0.8488012 0.17402536
0.21722099 0.32723287 0.23446955
0.045876931 0.2299803 0.17282201
2.172332 0.3838625 0.37086254
1.2294905 0.3550013 0.47559682
2.8132672 0.25532836 0.012561619
2.7085717 0.78249252 0.43803099
2.9857702 0.18040916 0.42660356
0.75791824 0.046312992 0.15419209
2.8045156 0.40906465 0.44081047
1.8716106 0.75730795 0.36521107
2.9157627 0.82971495 0.028827518
1.3225801 0.84500724 0.14381766
2.3595121 0.5691179 0.33574891
1.5846875 0.97894812 0.013249578
1.4382683 0.91670382 0.14091375
1.513638 0.81956106 0.032160006
1.1418239 0.81481779 0.12236459
0.70144522 0.067457199 0.14552109
1.6265978 0.0022956957 0.3500534
1.2714607 0.62616593 0.22870737
0.46272713 0.59808683 0.14356484
0.63569224 0.038946856 0.066068456
1.4985982 0.8254509 0.35062742
0.5130918 0.35368007 0.34010145
0.59258932 0.83310282 0.29845339
1.4380718 0.33764881 0.20823391
1.6310319 0.71825677 0.11564281
2.3652194 0.95207185 0.1493714
0.23834588 0.4942711 0.15051925
2.3386664 0.9180913 0.46360222
0.71091056 0.072333694 0.26264563
1.5722996 0.2842311 0.28211907
1.9687103 0.78376389 0.19484451
1.0724748 0.95479447 0.37168455
0.11308353 0.15232424 0.28823596
